X,Y,Z,R,P,Y
0.596884441525146,0.120748701326603,0.0777845722656664,-15,-35,38
0.686866921216556,0.0844947129409286,-0.0508384946496841,15,11,14
0.651297791562777,-0.0466285871228024,-0.0730153738002994,-0,26,-26
0.745905723531126,0.206463628442016,-0.0257081285916223,12,32,23
0.724174781568127,0.125694703921527,0.0551549870680286,-15,-23,32
0.526867920063581,-0.0959012967065054,-0.0331221619208706,6,11,-14
0.746971121251801,0.198384483953629,-0.167955245023724,6,26,41
0.626828642615247,-0.163151506936587,0.0553413042776786,-15,-35,-35
0.726820263897461,-0.0759456119472211,-0.146165920164057,9,35,-29
0.495815810224423,-0.0246897074201357,-0.0432636501466281,-6,41,-26
0.612563851104736,-0.0518988826572944,-0.0731845964000089,3,20,-11
0.686866921216556,0.17356707922396,0.0162923486597962,-0,-5,11
0.70499171428894,0.208864310762922,0.0436832933089278,-6,-26,8
0.706855774782617,-0.159807992717516,-0.0888895933105544,9,20,-5
0.588178946690915,-0.112895486173446,0.0217650653023519,15,-20,-44
0.649591541841058,-0.14964113505219,-0.131293397256336,3,29,-20
0.586711509889593,-0.183886827899867,0.0996284161314687,-6,-8,-20
0.568249270056268,-0.0401036112636091,0.0791589910018365,6,-32,-35
0.724998681943662,0.127327634033894,0.135953565326702,9,-5,44
0.697601490710795,-0.0737221468883885,0.0462656536775248,0,-14,-20
0.471890174310231,-0.114060993993849,0.0187500893428001,0,-14,-32
0.526867920063581,-0.100976938842527,0.00979497442950301,-3,-17,-23
0.617079191308106,0.033142486750503,0.0760162102416977,9,-38,26
0.706855774782617,-0.182866974148231,0.0970839877751395,12,-8,-41
0.595457418067803,-0.188468280245235,-0.03740039379189,-0,32,-20
0.722626257157647,-0.164205763400735,-0.0494824390620686,-9,44,-20
0.724174781568127,-0.10858601619113,-0.0816151145508041,-9,38,-17
0.710375367903663,-0.154647833915165,0.0417314570608723,9,-17,-17
0.671457003223226,-0.111641958442177,0.0954212038434079,-15,-11,-8
0.63322069427573,-0.211316063755954,0.0542178847833092,3,-35,-32
0.496592708158581,-0.0347059443578693,0.012733840913264,9,-11,-29
0.587372426134101,0.0712723618390317,-0.0458626422671704,-0,17,20
0.694446221418783,-0.0396021517181052,0.0549067595488867,-9,-17,-38
0.482050901958979,0.103060218521355,-0.0326115670676199,9,26,20
0.744459777645353,-0.166413810217643,0.0692983365174745,15,-23,-20
0.618552008482094,0.181652159899501,-0.0435362257241276,12,41,41
0.745905723531126,-0.150037595238929,0.0949153633582221,-0,-11,-20
0.675184790342356,-0.182660594401925,-0.0427325647488376,-6,29,-8
0.724174781568127,0.1048218969317,0.121989117489021,-15,-41,8
0.643069821998199,-0.195002709278657,-0.127935563660984,-12,17,-29
0.737548942674364,-0.250865692229025,-0.15584353922135,0,26,-29
0.572869076269052,0.0428444202232686,-0.0709350559319156,-9,11,32
0.733235969984462,0.266560628037699,0.052477123487188,-3,-14,20
0.501990239716279,-0.0265630655681504,-0.0645073650357284,15,44,-35
0.73227614850259,0.236336502389195,-0.0589786872738828,-6,5,44
0.652135236105882,-0.0374077809367357,0.0596217284800283,-12,-8,-8
0.73227614850259,0.0229523261414569,-0.0459759556404658,-12,35,5
0.617079191308106,-0.112060538197068,0.0817566853207482,3,-29,-41
0.639143247068258,-0.135010817766726,0.124141915113952,3,-8,-41
0.742503450732709,0.27061198387891,0.0828217664430417,-15,-44,41
0.650744837519389,0.0869479585348117,-0.0288311101972307,15,17,26
0.469492796374935,0.0513315125045094,-0.0419934418536119,6,17,11
0.718052572111783,0.114013375478504,0.0598081966512592,-0,-26,5
0.542620234913981,0.148718743098558,0.0398532952504541,3,-17,11
0.738445107939734,-0.238760430382197,-0.0499670465731004,15,29,-35
0.566731416412156,-0.0822226510474092,-0.0892876399240071,-6,20,-5
0.619879363182489,0.103551496776819,-0.0356934574021417,-0,41,8
0.667542851600266,-0.0186434110292939,-0.111844789132783,-12,17,-35
0.639692916681877,0.11107772999083,-0.122743764709507,-6,38,38
0.709715190357241,0.180296323655526,-0.0833615408339465,-3,20,17
0.505445561821746,-0.107197472483893,-0.0302090932835298,9,17,-14
0.735004322420625,-0.235181145161433,-0.122635550399877,9,32,-26
0.499162369483557,-0.13834762125113,-0.0582352419615191,-9,23,-17
0.724174781568127,-0.0657546725545365,0.0325614938397766,0,-38,-44
0.660718758545648,0.170690335669043,-0.118785383886164,12,11,14
0.659004525973601,-0.146350892267133,0.110639114057226,-6,-23,-29
0.667542851600266,-0.0457096315724018,-0.113329151575356,-15,11,-11
0.63322069427573,0.141555975671228,0.0435133312916104,-9,-29,26
0.625032798638995,0.0720133507172877,0.0199229547357939,-9,-38,35
0.668482794883638,0.0700914234212967,-0.0867340679847455,-9,5,41
0.676048819429156,-0.229306978597264,0.0816899225855745,9,-23,-38
0.635165158592868,-0.132965691371654,0.110489610177285,-15,-20,-38
0.534821589841291,0.013766979584072,0.0448176505769203,15,-5,35
0.680734407962327,-0.234147161091555,0.0653214238440539,12,-17,-26
0.595457418067803,0.142232473625307,0.103376169568246,3,-8,29
0.733235969984462,0.111393273351527,0.0287459765435189,-3,-32,11
0.694446221418783,-0.0772663466999644,0.0592393612528446,-9,-8,-26
0.640979711993049,0.148074804017341,0.0104632276894758,0,-14,26
0.654336621370353,0.203126923111703,0.019595072710361,-3,-38,32
0.500800442255466,0.131388010393459,0.0676375713420687,6,-38,17
0.562898476956806,-0.10717326709355,0.0823700653654524,9,-17,-11
0.70499171428894,0.229173503483726,-0.130436247920516,-9,5,20
0.710375367903663,-0.0800383407739527,-0.050486908386144,-9,26,-32
0.661687895778315,0.129050838637299,0.0565482411762845,6,-29,23
0.726820263897461,-0.140651010306658,0.0285647247890982,-6,-41,-32
0.664051088917108,-0.0455630308108845,-0.08735801623844,0,26,-11
0.661687895778315,0.119802454663761,0.0749499260384488,-6,-8,35
0.643069821998199,0.0890470069901587,-0.0282650647979493,9,11,35
0.595457418067803,0.0941491916251707,0.0674679430944156,-3,-23,29
0.715444890057669,-0.262630968339589,-0.0858525718848117,-12,38,-8
0.654336621370353,-0.209190809007183,0.110035662482441,-15,-41,-41
0.556147791962915,0.0515751234014174,0.0557024980709627,9,-44,23
0.471096662798883,-0.073290034227613,0.0239955327819843,15,-17,-35
0.57808016650872,0.146039512007895,0.0308335611430742,-12,-17,44
0.692076795403702,0.199624144589299,0.0645843732338082,-9,-41,5
0.702079077332429,-0.19943591466807,0.0582610315086669,-3,-8,-35
0.542620234913981,-0.126543464725025,0.0265330010864474,6,-35,-14
0.72162681788301,-0.24492058514483,0.121074564251289,-3,-35,-29
0.608811899990734,0.0512568055401209,-0.103240662184249,15,44,20
0.510753549246389,-0.0415843218917854,-0.0676689392879658,12,23,-11
0.669626984087833,0.0912976605290638,0.0854797474714198,9,-8,17
0.715444890057669,0.16907998279015,-0.051926412094431,-6,35,38
0.724998681943662,-0.0451522235114239,0.137051671942064,3,-44,-35
0.743790960080972,0.164592495638549,0.0585194902132536,9,-32,8
0.635165158592868,-0.0879910423930617,0.0707679706867764,0,-41,-38
0.629830649552364,0.0871508384630055,-0.0422918028720208,3,8,11
0.722626257157647,0.173464381435104,0.138436284143203,-6,-26,29
0.738445107939734,0.176390912803121,0.0523136413436339,6,-8,41
0.694446221418783,-0.230073626167915,-0.111097113838978,-3,41,-8
0.488372724571471,0.0199279136735693,0.0567059290524004,-6,-14,14
0.615751805136824,0.101255040058482,0.0800275559531995,-0,-20,44
0.621684781793325,0.13756574103744,0.0863057907805959,9,-11,38
0.744459777645353,0.139093205029445,0.0730340402073736,12,-5,5
0.696454102292065,-0.133953003247024,-0.102918032451666,-15,41,-11
0.585416570018759,0.0561274258051774,0.0556349232145099,-0,-32,5
0.724998681943662,-0.236846203164152,0.136093269997925,6,-5,-32
0.535595239440068,-0.0668448681167745,0.0262902141869212,6,-41,-11
0.741071651076601,-0.158866746381754,0.0380462504378065,-6,-11,-29
0.70499171428894,-0.152152125489519,0.0658223499303706,15,-23,-23
0.743790960080972,0.130350557654853,0.126217082798366,9,-41,35
0.724998681943662,-0.180729659083395,0.0785174339274751,-9,-26,-17
0.535595239440068,0.0684919685728042,-0.0596204361515302,-12,5,20
0.68817534984283,-0.039123154811367,0.139058168622413,12,-5,-35
0.710375367903663,-0.040782352917058,0.13037263041815,-3,-17,-29
0.654336621370353,0.0310850784673398,0.0320595601128432,-12,-44,41
0.659960522529815,0.168526501866177,-0.0365730504059241,-3,44,32
0.639692916681877,0.0767653477741087,0.0216888845354408,-0,-32,38
0.595457418067803,0.0578561396943715,0.0556241095865392,12,-38,11
0.599785429933521,0.0540151161004475,-0.0683853441739291,3,8,32
0.516244374245773,0.0878101863550697,-0.0499293148790119,15,38,23
0.500800442255466,-0.102117907527999,0.0530214001198805,-12,-35,-41
0.661687895778315,0.0763270476287308,0.0633560269704889,0,-35,20
0.619879363182489,0.0887979716449076,-0.0320575731984836,-15,8,26
0.664051088917108,0.15347728463666,0.0897692443320308,0,-14,11
0.694446221418783,0.0875476111183762,-0.134114495715451,-3,14,32
0.542004098903018,-0.0197965250706298,-0.0371939441695676,-6,8,-23
0.741071651076601,0.0490260798552668,-0.105838798780771,-15,29,5
0.722626257157647,-0.0884833154964416,-0.053346010139972,-9,5,-23
0.525953641558195,0.0213218042831138,0.0404609146571618,6,-5,23
0.598279566827504,0.134166474114462,-0.0742280899083352,6,23,23
0.6819979451512,0.10142546264483,0.110308531862822,-12,-20,8
0.541502346840033,0.0608188326713731,-0.0627354163330856,-9,14,20
0.690326165216433,-0.0883575312275589,0.0942321248957071,0,-41,-14
0.615239352413053,-0.17005053902978,-0.0727364377216116,15,41,-35
0.535595239440068,-0.0536027343042205,-0.0362159471245599,6,20,-14
0.706326425892156,0.146653914515098,0.111573445002334,3,-26,11
0.639692916681877,-0.129906916997365,-0.0208391401330249,-12,29,-8
0.713079057512338,0.0684803925293644,-0.0950856702822813,15,38,11
0.532470777704292,-0.039277998858688,0.0213237663931064,-12,-44,-17
0.68817534984283,-0.0622586770808523,0.061322171301914,-3,-11,-11
0.468599777244736,0.0900467135749664,-0.00796651706443044,-0,41,29
0.644348651128641,0.157767396673568,-0.046761823836977,3,5,20
0.537703372107285,0.129166827310988,0.0652940417048594,-3,-32,41
0.696454102292065,-0.237920837708361,0.0594114963411486,-9,-38,-5
0.720823839953274,0.244688392342678,0.100471757599942,6,-44,44
0.542004098903018,-0.135353618685863,-0.0122941970019513,0,5,-8
0.482753291470006,0.100738778467888,-0.0511943619701196,-9,44,35
0.737548942674364,0.140596043852341,-0.0799750548637288,9,41,29
0.568249270056268,-0.154070249840919,-0.0395179593168548,-12,8,-32
0.668482794883638,-0.139684180072661,0.0270274873254121,0,-38,-20
0.733235969984462,0.125836046530007,-0.069512431629834,6,14,35
0.647942603673042,0.106042453579728,0.0776953754061083,-3,-8,17
0.697601490710795,0.18958720614752,0.118800153362824,-6,-41,41
0.671457003223226,-0.210519000349893,0.0856080834804768,-9,-5,-11
0.654336621370353,0.0642637763097953,-0.0997647298208748,0,14,38
0.678060077512272,0.225668903803248,0.119797481567163,-6,-32,11
0.698726576966879,-0.252545485664512,-0.130043774520127,9,8,-29
0.631613492926315,-0.183418259810742,-0.0804448055126303,-6,41,-8
0.743790960080972,-0.0517914894547304,-0.171155398085934,-6,8,-29
0.722626257157647,-0.0590038263356031,-0.0482799290600511,-9,23,-32
0.675184790342356,0.0816607956121087,-0.0659646945511802,-3,17,32
0.669626984087833,-0.0964501643810917,-0.0763418766657454,6,23,-35
0.63322069427573,0.202357412026487,-0.0606459154048689,12,5,32
0.487318169598456,0.112896563211115,0.034367685611837,0,-23,23
0.671457003223226,0.114666959415557,-0.0138089036145333,-15,14,8
0.483589239650878,-0.0291376185061217,0.00609802802362141,15,-23,-17
0.702079077332429,-0.155029298024278,0.0808230461440718,15,-20,-32
0.72162681788301,-0.18729828195528,0.0942803230985763,15,-38,-14
0.679317943589314,-0.146400472865578,-0.0483732655431181,6,20,-29
0.6895249771734,0.118053244556664,0.0970611223027927,6,-44,35
0.621684781793325,-0.0967243952655681,0.107687601693609,-12,-44,-35
0.675184790342356,0.200114476449423,-0.0681513493210291,6,41,35
0.541502346840033,0.0736107471760063,-0.010277509194854,0,44,5
0.603821640986821,-0.0251202322057286,-0.105033079754373,-15,32,-14
0.6819979451512,-0.233130035952319,0.0670764926870882,-9,-41,-20
0.588178946690915,0.119302701713106,-0.0775048543911534,15,20,35
0.635165158592868,-0.0512060741319163,-0.0169901120696011,0,20,-29
0.655133467377376,-0.136635606162296,-0.114905196278086,-9,23,-20
0.68817534984283,-0.0940403746608916,0.0736468055617563,-12,-38,-35
0.633834419705329,0.186430324395231,0.0299163820338872,-0,-29,17
0.747891120247704,-0.152090384151304,-0.0815359181722972,-6,44,-29
0.70499171428894,0.248759225756221,-0.0289743384542248,12,11,5
0.640979711993049,0.0795857508184535,-0.0613579823714756,-9,26,38
0.572869076269052,-0.111004775447704,-0.0343561036403627,-12,23,-5
0.697601490710795,-0.15394077055633,0.0575824228514006,15,-29,-23
0.660718758545648,-0.0695835198472247,0.0426973256972188,3,-5,-38
0.727543210489496,-0.263573843454771,0.0401335893453098,0,-41,-26
0.655133467377376,0.0593921254048578,0.0500765375464802,12,-35,35
0.615239352413053,-0.128643979604613,0.0428399542190498,-12,-29,-23
0.656597645455304,-0.194029594943955,0.12637407920071,-0,-14,-8
0.743790960080972,0.0743361869145531,-0.0874316848020909,0,11,32
0.724998681943662,-0.0538873453448936,0.0282072885742296,-6,-26,-14
0.615751805136824,-0.145405213915649,0.00190865504698598,-0,-5,-20
0.608811899990734,0.0221522396954483,-0.0774862659052857,-0,5,35
0.470318399182418,-0.0657237990244278,0.00823076380562492,15,-8,-8
0.724998681943662,-0.119297686513183,0.134999800167964,15,-23,-35
0.70499171428894,0.140422458020965,0.0730069089037235,12,-35,17
0.715444890057669,0.0618054157192723,-0.0518705552485013,15,35,5
0.622652431461794,0.184071330247543,0.0300990897412943,-3,-11,8
0.627631865076082,-0.0529276751529321,-0.100555664810372,12,17,-20
0.537703372107285,0.133979405191947,0.0616578410079129,-3,-26,32
0.733235969984462,0.0838026373784361,0.0359300133769138,3,-11,20
0.495815810224423,-0.135338075550731,0.0340232630057217,9,-35,-38
0.696454102292065,-0.197933607241463,0.0834092991552484,-6,-29,-35
0.675184790342356,-0.211967542633283,-0.107403795105553,3,26,-35
0.640979711993049,0.0932832386153281,-0.0547535951140841,-15,35,17
0.69707268779095,-0.0612006604731152,0.144149314246919,-6,-17,-29
0.6819979451512,0.217225649795577,-0.0949811567964235,-0,29,38
0.727543210489496,0.0777138691801589,0.060923916685686,6,-17,5
0.659004525973601,-0.043587921996857,0.0713192776246541,9,-20,-17
0.715444890057669,0.0850003302465834,0.0929789202834545,6,-29,44
0.558965102242256,-0.0503819844480682,-0.0814234700509276,-15,26,-38
0.613509858907954,0.190457161867019,-0.0747937974112421,9,41,17
0.587372426134101,0.184936873907345,-0.0199956263015862,-0,29,14
0.643069821998199,0.152900813674355,-0.118968471493418,-0,17,41
0.547510498173996,-0.0450088828362408,0.0344769176466741,-3,-26,-14
0.727543210489496,0.15915070818806,0.12417859480954,6,-29,14
0.58221975347462,0.12706784714373,-0.0320724846607125,-9,26,44
0.639692916681877,-0.0396806008810912,-0.0875594782330069,-3,32,-20
0.525953641558195,-0.135115702358606,-0.0119072997902642,9,23,-23
0.724174781568127,-0.181850909886623,0.0416340385249278,12,-20,-35
0.535595239440068,0.0343576342049664,-0.0681596608540462,12,44,8
0.63322069427573,0.182675795169271,0.0833563122603433,6,-11,8
0.671457003223226,0.0933334837845719,0.105532298598854,-15,-14,20
0.480147974428299,-0.110516676753856,0.018171241332647,6,-20,-35
0.738445107939734,-0.122576143137296,-0.0480780094021961,9,17,-26
0.640979711993049,0.125941985051034,-0.0392373720113136,-0,11,26
0.724998681943662,-0.191700974910861,0.125028796468482,-3,-23,-32
0.745905723531126,0.054781951390686,-0.127034109657247,0,41,23
0.722626257157647,0.212762205912582,-0.156805054273757,12,32,35
0.686866921216556,0.0545075415611484,0.100111644806541,6,-41,29
0.469492796374935,0.0708926025719865,0.0304410214114799,12,-23,41
0.711678488197778,-0.185428409845,0.0632343524562164,-12,-38,-20
0.73080221464043,0.0876760817529588,0.10125949222934,-9,-11,20
0.47564602592954,0.116551099828378,0.0455697231240807,-6,-32,5
0.485140651763944,0.0413843572073493,-0.0325511800906418,9,14,5
0.658429649084132,0.0550436352217275,0.00391982141455334,-9,-29,5
0.702079077332429,0.19294248522766,0.0587544581690308,0,-29,11
0.470318399182418,0.0420670243838223,-0.0412698596642666,-15,17,17
0.747891120247704,0.0697071462316796,0.113769292449139,-15,-23,14
0.593077840563378,0.084325403680148,0.0421803436898478,15,-32,8
0.675184790342356,0.0515141661498169,0.141460846343555,15,-26,17
0.669626984087833,-0.131172505265352,0.0868659957984192,-0,-44,-35
0.587372426134101,-0.101931612950314,-0.105626195164552,9,29,-8
0.742503450732709,0.122940385563442,-0.169745862269796,3,23,11
0.742503450732709,-0.119100054358702,0.0438874007390201,3,-11,-44
0.640979711993049,0.186218451973421,-0.0483362000159358,15,20,17
0.706326425892156,-0.132127139403562,-0.031586154197588,-15,29,-41
0.622652431461794,-0.172909011195943,-0.0574575538501729,-6,38,-23
0.568249270056268,-0.139973571561527,0.0948154144224788,3,-38,-35
0.644348651128641,0.0672217985239357,-0.0811454381301852,-6,26,35
0.711678488197778,0.0317273209634205,0.159581218217865,-0,-26,20
0.615751805136824,0.120807289423049,-0.0147258406826387,3,8,8
0.644348651128641,0.037891566504202,0.0994219584756454,-0,-20,5
0.588178946690915,-0.055173241247665,-0.0440296040052659,3,17,-20
0.667542851600266,0.146665627532879,0.12182436987682,6,-26,23
0.52532172208574,-0.0902926887286695,0.057921966416227,-0,-17,-26
0.633834419705329,-0.0436980686062034,-0.112436837702121,-12,23,-8
0.470318399182418,0.096484677042459,0.0453435136301207,9,-17,44
0.659960522529815,0.142595570650773,0.0825044547116171,-0,-41,11
0.706855774782617,0.249357623721579,-0.117755433332591,15,44,23
0.565057323769671,0.153829057265106,0.0937277815526708,15,-35,20
0.733235969984462,0.0867409740790525,0.0794969753655217,-9,-32,38
0.722626257157647,0.164261898749607,0.114614026720195,0,-26,44
0.652135236105882,0.149604519033833,0.114947900058808,0,-41,44
0.501352277461793,0.0446488783565896,-0.0104488164130056,-12,20,32
0.6819979451512,0.163802022843091,0.0526836969748601,15,-38,41
0.724174781568127,0.110098400120713,-0.0658214100109788,15,23,8
0.710375367903663,0.256905860795565,-0.0322906685799975,3,5,5
0.726820263897461,0.244674606028933,-0.0839854656649085,-9,32,5
0.57808016650872,0.169865361726817,-0.0764339420127698,-6,8,26
0.68817534984283,0.0889820017289344,-0.0503533519166838,-0,35,26
0.69707268779095,0.161184473834164,-0.061396219717288,-6,17,44
0.706855774782617,-0.124243309326773,0.119773580264784,9,-32,-23
0.669626984087833,-0.21249188278724,-0.121816945419204,-12,17,-23
0.588730837374096,0.14448357726101,0.0465766374374868,-12,-5,11
0.668482794883638,0.115426910546264,-0.0777817372485503,-15,44,8
0.547510498173996,-0.0972180160548657,-0.080333386656443,-0,44,-44
0.746971121251801,0.250328083324664,0.0577159838460166,-0,-35,32
0.6819979451512,0.127782514047819,0.0450643499520572,-6,-14,44
0.671457003223226,-0.132536652022797,-0.0782135819852789,15,17,-14
0.524581956003926,-0.0582832483280488,0.0226164615956548,0,-44,-38
0.561268638550049,-0.13032641027943,0.0218740021422666,-12,-26,-41
0.555255243109738,0.0639362424457529,0.0602448983870984,12,-5,41
0.631613492926315,-0.107632089711387,-0.0572952121140464,3,8,-14
0.690326165216433,-0.207290657646381,-0.103405241358373,3,29,-8
0.562898476956806,0.164508232863409,-0.0252135615557627,15,44,11
0.72162681788301,-0.241633767962713,-0.0708333866664815,-6,23,-44
0.671457003223226,0.095708719136935,-0.139360765242498,9,26,23
0.727543210489496,-0.167057822846374,0.108959359550808,-15,-35,-41
0.584126563324101,-0.164581007528966,0.0650130665959318,-9,-8,-35
0.588178946690915,0.0912791379345093,0.0638907889005732,-3,-38,29
0.698726576966879,0.22116631114597,0.101060822891419,9,-38,44
0.727543210489496,0.25222993783712,-0.161125128948079,-15,20,29
0.588178946690915,0.127559283268136,0.0454079259112096,0,-23,44
0.68817534984283,0.169297709183315,-0.0845199747483487,-15,35,11
0.679317943589314,-0.125192326996401,0.0743807240922522,-6,-23,-14
0.603821640986821,0.181149306032578,-0.0648687201195395,9,44,38
0.675184790342356,0.0907257593280834,-0.129571889865361,-15,20,5
0.537703372107285,0.0533858329745662,-0.0447504978329265,-0,8,32
0.456401408270944,-0.073953091816313,-0.0345567595993155,-15,41,-17
0.696454102292065,0.0651884481738539,0.149890403128011,-0,-38,29
0.660718758545648,0.160825819382481,0.0577637828825261,9,-23,41
0.737548942674364,-0.149092760697087,-0.0374672761792335,9,5,-32
0.608259138929987,0.117832538594015,0.0877202981636006,0,-11,5
0.655133467377376,-0.0782555981264751,-0.0909240810064819,-0,29,-29
0.678060077512272,-0.188809667864809,0.0527991421043007,0,-17,-32
0.668482794883638,-0.15774975481411,0.0961578359927921,-9,-44,-44
0.733235969984462,0.231417773794156,0.0502387654647276,0,-17,23
0.738445107939734,0.127155029013421,0.0581411285051296,12,-26,26
0.745905723531126,-0.240425324214075,-0.156258910282536,9,26,-26
0.493489175161858,0.0578275617757168,0.0425613610960076,9,-23,29
0.713079057512338,0.130887915885081,0.149750069797035,-15,-29,44
0.697601490710795,0.157566327712253,0.0724469620196839,-9,-11,23
0.668482794883638,-0.230922803532417,-0.111380566919304,-0,11,-8
0.711678488197778,0.228207639594425,-0.140905904718742,-9,44,14
0.697601490710795,-0.0565737248642731,0.14931749047821,-0,-26,-17
0.713079057512338,-0.256000385529781,0.152307982783112,-9,-29,-44
0.69707268779095,0.113931588435717,-0.0333884694217664,0,44,8
0.459572498078824,0.0444841695712234,0.0424720433905668,15,-23,26
0.519852492038105,-0.0279680905090982,0.065959326045112,-6,-32,-20
0.639692916681877,0.145285711871134,-0.106036385445791,-3,32,38
0.585416570018759,0.15646053640096,0.0527504936654992,-6,-11,5
0.678060077512272,-0.131362851946617,-0.0442734880353273,12,14,-32
0.745905723531126,-0.161946999409802,-0.111282983335362,12,14,-35
0.715444890057669,-0.189387639984443,0.0451831137008611,-6,-41,-14
0.639143247068258,0.0434779495367978,-0.0902517812560956,3,23,14
0.686866921216556,-0.157017415792335,0.0711201348314993,3,-29,-32
0.726820263897461,0.215993606297028,0.0267002994310073,-6,-35,23
0.744459777645353,-0.186201455798746,0.137620678523986,-0,-23,-29
0.710375367903663,-0.0807465349976432,0.0299797106402485,-15,-44,-44
0.622652431461794,0.134006143569501,0.0621964915439658,-6,-29,29
0.617079191308106,0.124185605845913,0.0113543080219013,9,-20,38
0.6819979451512,0.135389941607137,0.082465333030609,-3,-41,32
0.617079191308106,0.0523278026550125,-0.0693738942639605,-9,23,26
0.598279566827504,0.0614991818510958,-0.0624024324221727,0,32,14
0.747891120247704,0.123111964429159,0.0660742195135828,-0,-23,35
0.556147791962915,0.0416128072736474,-0.089486797923343,15,11,41
0.583533804361506,-0.0525304411488729,0.0302561740113336,-15,-20,-8
0.469492796374935,-0.0199292484432331,-0.0255004212011024,3,29,-5
0.622652431461794,-0.199308621306093,-0.0593011633038061,-3,29,-14
0.738445107939734,0.0600117687304272,-0.110629536236731,-3,32,35
0.461354943729925,-0.108826810297549,0.00831960462467405,-9,-26,-8
0.73227614850259,0.173800953020412,0.109096068598747,-0,-29,41
0.635165158592868,0.042427207860927,-0.0816216711053335,-9,20,44
0.572190478966209,0.150377451571082,-0.0791240822190099,-0,5,38
0.512322679033029,-0.0774748389475194,-0.0446583577588476,0,26,-32
0.587372426134101,0.108706940503852,0.0206013322371085,0,-8,11
0.680734407962327,0.194755597476433,0.106021613962162,3,-17,44
0.614292732492422,0.0809894176346702,-0.0584766916939565,12,17,41
0.654336621370353,0.0912900939317502,-0.0429602235027505,-12,26,17
0.617079191308106,0.144549016217245,-0.0306974528668011,3,38,20
0.745905723531126,-0.0683759911240957,0.170316081780083,-6,-38,-8
0.726820263897461,-0.247818654590339,-0.147225709465099,9,29,-32
0.450523203630603,-0.0269752992518206,-0.03786853086347,6,29,-41
0.738445107939734,0.167057013800927,-0.0583630942574418,-15,14,32
0.649591541841058,-0.0442912594322085,-0.0595620117466622,6,5,-20
0.629830649552364,0.132494731233713,-0.0351936044077633,12,14,41
0.57808016650872,-0.159194587123038,-0.0496884136022394,12,11,-11
0.655133467377376,0.196163039269938,-0.0682326708503946,6,32,38
0.530790166971967,0.0372917817254306,-0.0710258277461577,12,26,8
0.609758730080586,0.194919193301358,-0.110415319124949,12,20,38
0.744459777645353,0.0911407424013096,-0.0895087519430411,-3,32,44
0.618552008482094,0.177133432216743,-0.0462255895001106,-3,20,8
0.73227614850259,0.232489708457448,0.0698618714273694,-12,-38,23
0.551477830054277,0.0952377580225303,-0.0492854508939564,15,38,20
0.532470777704292,-0.10683072911706,0.0652195847459603,-15,-8,-23
0.558965102242256,-0.0338895559835044,0.0220730186713582,9,-26,-41
0.747891120247704,-0.188814838602855,-0.154234264517909,-3,11,-17
0.745905723531126,-0.268575374084052,0.0442653861964717,9,-11,-8
0.656597645455304,0.21581782075688,-0.0591831081869713,-6,32,26
0.658429649084132,-0.19912974272103,0.0466033922699279,-15,-26,-20
0.586711509889593,0.134052963456836,-0.0874442492215597,9,44,26
0.726820263897461,-0.043986190690729,0.0948703183935613,-6,-23,-32
0.720823839953274,0.262825541029508,0.120102500154466,15,-29,17
0.742503450732709,0.11337236495725,0.104210125641506,-12,-35,32
0.702079077332429,-0.120705770680138,-0.0202912175606537,-6,17,-41
0.713079057512338,-0.0594918133881427,0.135413696622308,-0,-32,-44
0.73227614850259,0.135571851084974,0.152685212660033,-0,-44,20
0.722626257157647,-0.219865471154131,0.0851673450902204,15,-14,-26
0.710375367903663,0.120314743995926,-0.151000876739772,9,20,14
0.659004525973601,0.126593191803462,-0.130431962090964,0,23,20
0.596884441525146,0.177407757833739,-0.0590959069602319,6,14,5
0.724998681943662,0.142931214640489,0.102869395595911,6,-11,23
0.735004322420625,0.120957514347858,0.0273949908316266,12,-29,17
0.6895249771734,0.191770287315998,0.0502257507412215,-3,-23,41
0.650744837519389,-0.0322513235253925,-0.0934962469440226,12,8,-20
0.571514583679712,-0.0412413066870718,-0.0292819026229195,12,35,-8
0.726820263897461,-0.131564164877385,-0.0702885396485243,15,38,-5
0.543953097925965,0.11824192306106,-0.0530677366032102,-6,11,35
0.743790960080972,-0.0506599223127409,-0.134936764829354,3,35,-11
0.595457418067803,0.153950967879403,-0.062701043389161,-9,11,14
0.626828642615247,0.0706730198797414,-0.120209249094474,3,23,5
0.58470098835379,-0.0697600246426807,0.0365390618493248,-15,-11,-17
0.692076795403702,0.237631382008688,0.134154380956063,-3,-20,44
0.664051088917108,0.0419604409233792,-0.114000849185029,-9,35,26
0.617079191308106,-0.143474455016536,0.0921548872060828,3,-14,-14
0.678060077512272,-0.0722395155092872,0.0945554259595304,15,-20,-26
0.628661520837604,0.153559170317533,0.0924730303964279,-3,-8,38
0.69707268779095,0.142631584311628,0.0788173435749739,3,-29,26
0.715444890057669,-0.254134004270326,0.127856036736437,-15,-14,-14
0.741071651076601,-0.158370918480306,0.0613266631997583,-9,-14,-35
0.741071651076601,-0.116010037625105,-0.0339767698598617,-3,35,-35
0.654336621370353,-0.166280039306903,0.116588613424105,9,-26,-5
0.583533804361506,0.120091991452451,0.0829513426856125,0,-32,8
0.692076795403702,0.179646963676711,0.129698081484496,3,-26,44
0.727543210489496,0.0817412129493036,0.0700948899817813,-6,-38,14
0.618552008482094,-0.122016824296335,-0.0168595720032124,15,32,-26
0.743790960080972,-0.0780718399009559,-0.0844362597515815,0,8,-29
0.650143143739864,0.182884537406607,0.132446398249174,0,-32,11
0.595457418067803,0.0532642133579178,0.0829887566780993,-0,-26,38
0.613509858907954,-0.156531390255628,-0.0996869231485226,15,23,-5
0.609758730080586,-0.11632433211304,-0.108469026510835,12,32,-41
0.568249270056268,-0.0563969174067346,0.0160576237292812,3,-29,-23
0.724998681943662,0.113317109426633,0.0480250819622307,-15,-17,38
0.57967822218937,0.1277514873328,-0.0843931607451025,-15,14,17
0.660718758545648,0.137885132534703,-0.0956284711499566,0,17,17
0.551477830054277,0.154857517096281,0.0800200724098396,-15,-8,38
0.547510498173996,0.0509984579593632,-0.0468991481765702,9,32,35
0.715444890057669,-0.182175665570938,-0.151834690020793,-12,41,-14
0.635165158592868,0.0900920124026141,-0.0464118233374484,0,41,35
0.599785429933521,0.117026880057701,0.0842016002570281,6,-20,44
0.619879363182489,0.0642381871868108,-0.0979290526941426,-6,5,17
0.718052572111783,0.132228690739489,0.150731913035002,-15,-35,26
0.543953097925965,0.0494457964013176,0.0258515797307874,-9,-17,8
0.6895249771734,-0.187133013124763,-0.140076628974558,-6,35,-26
0.551477830054277,-0.159970632331851,-0.0513311241691046,-9,35,-41
0.626828642615247,0.0537034595649914,-0.0663293845110249,-9,8,38
0.572869076269052,0.0584367499268416,0.048939568089984,0,-20,17
0.680734407962327,-0.0808403806083935,-0.122643488745458,-3,8,-23
0.626828642615247,-0.202650288772738,0.116368993289327,15,-17,-29
0.73080221464043,-0.229366940833023,-0.0215493149109583,6,17,-20
0.675184790342356,0.186232452414475,-0.101978933146883,6,32,17
0.70499171428894,0.116775178363606,0.124091396906946,0,-23,14
0.556147791962915,0.145142348738864,-0.0680187104775583,-12,11,41
0.650143143739864,0.212519166729625,0.110862725740469,12,-5,29
0.650143143739864,-0.0886478742730963,-0.0712328347760302,12,35,-44
0.650744837519389,0.142217562627413,-0.0950764782627931,-6,35,8
0.727543210489496,0.106543328511518,0.0567238488897502,9,-35,8
0.702079077332429,-0.2439976020067,0.0537409265548398,-0,-17,-8
0.644348651128641,0.150105640036314,-0.121047220843559,-12,20,14
0.588730837374096,0.135448706379994,0.0981584395514891,-6,-8,8
0.746971121251801,0.0871420369891187,0.028504818486382,-6,-29,38
0.742503450732709,0.185839132151922,0.0573891873320182,6,-8,32
0.698726576966879,0.210923238675092,0.0259181383975343,12,-41,32
0.678060077512272,0.109012241037852,0.0447649237941789,9,-11,11
0.745905723531126,-0.0963514857102143,0.0550895095403264,0,-11,-11
0.571514583679712,0.170944522607494,0.0560914553684723,-15,-38,29
0.598279566827504,-0.0921347585035684,-0.060034793744283,-15,17,-8
0.747891120247704,-0.129673532413234,-0.0791711632980089,-6,8,-44
0.720823839953274,-0.216532353268795,-0.122239582169182,3,23,-17
0.69707268779095,0.214318896166463,-0.12951582483956,-9,38,41
0.710375367903663,0.196516667785525,-0.0784226144222756,-6,23,8
0.484573000746447,-0.130210766604534,0.0475291021592131,-15,-17,-20
0.609758730080586,-0.0634448348154325,-0.0732431062803478,-0,35,-5
0.625032798638995,0.131380352690575,0.121088231208941,-0,-32,35
0.596884441525146,-0.0514431246581432,0.0600762341516339,-6,-29,-26
0.706326425892156,0.251272114675591,-0.0453090739258768,-3,44,41
0.515357546806224,-0.0215355174121589,0.070355814238876,0,-11,-29
0.738445107939734,0.108246471331694,-0.166274446319396,-15,38,26
0.743790960080972,-0.139281529142653,-0.119073961212779,-3,5,-26
0.709715190357241,0.0496269860713223,0.152289483404939,-6,-20,17
0.678761656277917,0.207813642537389,0.0344692597448625,15,-29,26
0.655133467377376,0.140435969474176,0.106578072809551,-3,-44,44
0.744459777645353,0.223183228729679,-0.137940142882054,15,38,38
0.72162681788301,-0.100343421908887,0.0477207751222374,15,-8,-35
0.615239352413053,0.0718503778566352,-0.0905915678252557,-12,23,32
0.557958992762096,0.0948638846898687,-0.0497003111728979,-12,38,44
0.658429649084132,-0.090127020349803,-0.128932590789215,9,14,-8
0.644348651128641,-0.125149667965214,-0.063272719268404,-3,41,-5
0.587372426134101,0.0261399532944197,-0.0221711439988474,-3,17,8
0.545728606914504,0.10905714751533,0.0629622817192281,15,-29,8
0.557958992762096,0.0404402862726055,0.0150083130656118,-12,-41,5
0.596884441525146,0.182254795496457,-0.107191879226754,0,20,20
0.517871524547298,-0.0553981917088767,-0.0206208428754606,-0,23,-11
0.678761656277917,-0.106939869865717,0.102966419944961,0,-8,-14
0.603821640986821,0.190930521084277,-0.0168664116527098,-15,41,20
0.671457003223226,-0.102226480513804,0.117327444995666,-0,-17,-14
0.72162681788301,0.151500948256457,0.0611910831745373,9,-14,26
0.609758730080586,0.168977969769453,0.0416614853327857,15,-5,20
0.727543210489496,0.239144228968686,-0.0921690464813099,3,14,5
0.715444890057669,-0.25015567575189,0.10114136771293,-0,-32,-29
0.737548942674364,0.118249806620339,-0.140031544149366,12,17,11
0.659004525973601,-0.0776881664694529,0.0455198607620245,9,-5,-14
0.504482109937172,-0.064769955461468,0.0663196604654381,-12,-20,-17
0.586711509889593,0.0498943148722076,0.0958262354734648,-12,-8,35
0.696454102292065,0.0706694608165495,0.035874995493649,-3,-14,35
0.692076795403702,0.172162495139995,0.0638429895339233,3,-38,14
0.526867920063581,-0.0667238218749366,0.0680996259556438,-6,-26,-38
0.463545445236189,0.0549974844590934,0.0417341539900565,0,-5,23
