X,Y,Z,R,P,Y
0.737899868780558,-0.126739858077445,-0.056259451774891,-15,32,-38
0.629705132645835,-0.130130494006958,-0.0266075309402897,12,26,-23
0.601919239302026,-0.185678313368211,0.104709265085818,-6,-20,-32
0.64880626286925,0.127698382113051,0.0328035640732009,-9,-32,44
0.723167506856362,-0.089949056931394,0.0642322822041547,-12,-32,-38
0.502022006739333,0.0579502778703127,0.0117625761646639,0,-41,26
0.744362830254756,0.119390086162405,-0.0790441790900868,-12,8,41
0.521830773663491,-0.145296069509305,0.0674337442172,9,-11,-38
0.499373170911056,-0.0802982264979341,-0.0551422299800204,-12,38,-23
0.725294071120448,0.262212308642586,0.138213840213688,-3,-35,32
0.554102880493105,0.0682021428534574,0.0572088624606875,-9,-38,41
0.571115790789399,0.051735281346965,0.0953056399793189,-15,-41,8
0.615649280928372,-0.202529418288691,0.0406994973904905,-12,-32,-23
0.737899868780558,0.145727638051682,0.0482451309893847,9,-11,17
0.563623083251801,0.0740964898170645,0.0413288744134145,9,-14,35
0.689618558171619,-0.228473089692344,0.0464764525470102,3,-41,-8
0.547869747829643,0.10210542435696,0.057818377978518,-3,-14,35
0.683823672524589,0.192667857549121,-0.119877591504216,-3,26,17
0.490738138562211,0.116567410669416,-0.0522211331995416,9,11,32
0.598401841381773,0.114685327965846,0.057374501717994,12,-26,11
0.629705132645835,0.100358368637127,0.0652746523835931,6,-32,20
0.695505985876635,-0.197925442138919,-0.066948942771858,-15,38,-32
0.522983256979463,0.0542516527151249,0.0370528111790158,3,-8,44
0.670546870128845,0.236771656188554,0.0476674073975779,12,-8,26
0.576448326547595,0.150320093012854,-0.0494778537886328,9,23,35
0.627853051107143,0.182015710437975,0.0643887775597138,9,-5,8
0.611677258713228,-0.204490334948124,-0.0890428154385701,-6,41,-23
0.740852041058883,-0.11364904747346,-0.0913015467196495,-0,5,-20
0.679072359367383,0.117429554913596,-0.0662396446474589,15,35,20
0.657021295967733,-0.101446592561585,-0.0254356695155056,12,29,-32
0.627853051107143,-0.106110590945526,-0.0253339648112729,3,17,-14
0.492808380586953,-0.100848515448781,-0.0168968325952826,-15,32,-11
0.716529676754128,-0.0450997461771439,0.119729482018343,-12,-17,-41
0.681040772067418,-0.18701755980575,-0.102086282970201,12,35,-26
0.705295391043508,-0.145442283541724,-0.102185817313129,-15,14,-38
0.740206538854064,-0.177883479734503,-0.0183513136305185,6,23,-35
0.644633343748756,0.113914914615957,0.0764727883509454,0,-44,5
0.742520844389079,-0.200908141208949,0.126595697784004,-0,-35,-32
0.665044397961806,0.0589239451259559,-0.0388575636065133,3,8,32
0.668517827646365,0.174139095979237,-0.0827049907200124,-12,20,26
0.690337468451368,0.158051045930324,-0.0392028350325343,12,23,41
0.725294071120448,0.173019615720671,0.0489341782005465,-3,-38,32
0.619373022594004,-0.143441263672772,-0.0288511791624188,-12,26,-35
0.657021295967733,0.177862942704971,0.0840701006348429,15,-17,32
0.640588012591281,-0.211660199461165,-0.0641334129116252,-9,38,-14
0.723732243777498,-0.21284338351891,0.0240558845480441,9,-44,-38
0.704230315308095,0.160685844890979,0.102019937249226,-6,-17,26
0.520614129037001,0.142183530989115,-0.0549137259771419,-0,20,8
0.640588012591281,0.0399060581756809,-0.10530937982821,12,26,5
0.693689892148841,-0.10063194972161,0.135249224432174,12,-5,-38
0.620087763632265,-0.0334695481764085,0.0963668715442867,-3,-44,-23
0.596372481917594,-0.157644569469469,0.0875965407980006,-0,-14,-17
0.454094157234427,0.0590371179438657,0.035571790860779,9,-8,8
0.615649280928372,0.105708990863697,-0.114539326343012,6,29,8
0.733162852971671,0.264244851220781,0.0175272473727589,-12,-14,38
0.461458276972437,-0.0245866290894066,-0.0500432480373238,6,11,-44
0.649406116180734,0.131538527246978,-0.119967402124813,-0,35,35
0.744912924056242,0.140493377195002,-0.0164790401869847,12,17,8
0.700206053109286,0.0175213203718334,0.0766318900007731,6,-41,26
0.450043901949245,0.0742598521458838,0.00697411566348465,6,-38,5
0.62385829163317,-0.151556496153981,0.0747188519559637,3,-11,-44
0.479160953941099,-0.115080604452778,-0.0184062271660211,3,26,-41
0.622001733214642,-0.0590307092952477,-0.0587327809159614,0,14,-26
0.694738200941545,-0.190661479468395,0.127133316713922,-3,-32,-8
0.735907895160193,0.25252003187417,0.106665990081638,-3,-41,14
0.700206053109286,-0.186069619932095,0.135638543947867,6,-32,-32
0.727109908934504,-0.0958278174565558,0.0946365364499451,12,-20,-17
0.607380891921059,0.144604983946439,-0.100168987803117,-9,38,26
0.579636471574926,0.131968072753931,0.0627770821259539,3,-29,23
0.740852041058883,0.0875118172912549,0.0663430524220204,-12,-11,5
0.735907895160193,0.0784874332277646,0.084853304959356,-12,-29,29
0.618209932631355,0.0816470618826594,-0.102482549825267,-0,35,41
0.681040772067418,0.241502134694725,-0.0899097052310388,3,32,11
0.489233006645353,-0.0345990755270552,0.0437399098893896,-12,-41,-8
0.596372481917594,-0.0447425048028744,0.0720277111286692,6,-44,-14
0.617107287965001,-0.0414334649162513,-0.0508249351266712,-0,14,-5
0.73699071366408,-0.148286969191413,-0.121347057013299,-6,41,-35
0.721522097843158,-0.221936100974084,-0.109350328461247,-12,38,-41
0.62385829163317,-0.151956384932054,0.0744577153442626,-12,-14,-5
0.671666219380032,0.117941530792479,0.021143383941307,15,-35,32
0.520614129037001,0.0728988052240912,-0.0166313873022698,-15,44,11
0.746535096320353,0.218567491276554,-0.128255710113698,-15,35,23
0.46454923033632,-0.108087774769882,-0.0432371466120782,-12,35,-23
0.666759901276643,-0.170708932412102,-0.0700817863309276,-6,14,-26
0.717862247789792,-0.212382775466559,-0.151392597128689,3,32,-17
0.717862247789792,-0.0873278062046651,0.068928524453834,-12,-5,-20
0.744912924056242,-0.172299034331216,-0.0709832637846974,0,35,-17
0.662913812404226,0.101319288182677,0.0910038512445425,-6,-35,38
0.701238134217034,-0.14078622795977,-0.124774123948241,-15,5,-17
0.687422333492731,-0.208331263032736,0.144584542062335,15,-5,-11
0.666759901276643,0.15910636318061,0.0306755001247941,12,-23,32
0.729533300948912,-0.131406788535837,0.137553924934575,-3,-20,-23
0.570341384172566,-0.123346061679627,0.0155051723989431,12,-8,-8
0.576448326547595,-0.14309821607902,0.09003434643504,-3,-8,-35
0.521830773663491,0.13400225244479,0.0651249731906774,-12,-38,8
0.660212590498678,-0.118603554594124,0.0436847497777979,9,-11,-26
0.557641981586397,0.0977190929652675,0.0271084733138105,-12,-35,14
0.744912924056242,0.219488420980733,-0.0740893478886346,15,20,20
0.620087763632265,-0.0931630271593937,-0.0255182758459576,-3,5,-29
0.597382219546515,-0.188351302904386,0.103157647947918,-6,-38,-44
0.727109908934504,0.120661220366063,-0.106331880869462,-6,11,14
0.683823672524589,0.194545596869042,-0.0813996394072407,15,5,5
0.681040772067418,-0.113595203868216,0.0712144828280108,12,-14,-35
0.548514958345287,-0.149835039644283,0.0253524055029881,12,-8,-17
0.655320947290798,0.0688058827823518,0.130955454969726,6,-5,35
0.685409244117549,0.115773169455657,0.124127543413892,12,-14,41
0.668517827646365,-0.162477979539081,0.0714369867911758,0,-44,-20
0.654637070999967,0.0189469402787488,0.127361120882322,-0,-14,8
0.548514958345287,0.158925343594704,-0.0447518291471595,-12,5,5
0.723167506856362,0.185129762725559,-0.0377290767215457,-12,44,32
0.589636622058164,0.165364431193545,-0.0252088784326837,3,17,41
0.690337468451368,-0.161756654664355,0.0651986790738818,15,-5,-38
0.557641981586397,0.0874940607866053,0.0245558423693425,3,-23,41
0.470678449675964,0.0796645527199277,-0.0369991682800823,-12,11,14
0.654637070999967,0.167434833405425,0.132316935284051,-6,-44,29
0.689618558171619,-0.187670196595027,0.058546057785792,15,-20,-32
0.517856140638311,-0.113317897058448,0.0149852865767812,0,-20,-26
0.573945154876384,-0.0266783150820891,0.0685958326535981,3,-35,-35
0.705295391043508,0.244376435869225,-0.0988417117786884,-0,32,41
0.689618558171619,-0.122586762146886,0.0507602404247735,-3,-29,-26
0.608394027382838,-0.0813979283773477,0.0464459722348464,-12,-14,-26
0.737899868780558,-0.0730396000219179,0.0263218083185612,-0,-11,-11
0.547869747829643,-0.0995167606860148,-0.0785615468480998,0,44,-14
0.606046763402456,0.0738278179201023,0.0617770365288947,15,-38,29
0.697242836071915,0.16972933438679,-0.0594517446119335,0,8,17
0.727109908934504,0.0540237513382193,-0.16153351145476,3,5,44
0.729533300948912,-0.127847285896678,-0.0584328723098166,-15,35,-38
0.731339445748084,0.117609948603762,0.0633944305599579,3,-11,17
0.681040772067418,0.0248180025925698,0.0483942220365338,-9,-32,11
0.604715257320011,-0.124591762891607,-0.0150355305260356,12,26,-38
0.673444956411262,-0.0474311103104015,-0.13903530992837,9,23,-32
0.580233376204305,0.166948534134899,0.0839960843454861,0,-38,35
0.62385829163317,0.186913019370706,0.0929044381086744,12,-35,29
0.520614129037001,-0.0997568315248522,0.0432532428885142,3,-11,-11
0.496693238087166,-0.0865712871621908,-0.06023666850794,-9,32,-32
0.600264380760211,-0.146531844955897,-0.0912265198066266,15,23,-44
0.693689892148841,-0.197141671842999,-0.0745663778207449,9,26,-23
0.491315923091496,-0.0425666758509031,-0.0315479536700281,3,29,-32
0.514995990095075,0.13842811287704,-0.0128068071098908,9,17,32
0.696310290394219,-0.171905640273726,-0.0371963757383069,9,5,-26
0.717862247789792,-0.106983722191292,0.10392661693221,-3,-38,-23
0.733162852971671,-0.129088528222237,0.154817133314573,-12,-23,-8
0.682106122426769,0.0630873625186334,-0.0314507695561712,-3,5,23
0.487758813527687,0.122859216786563,0.0326696426216221,-0,-20,35
0.607380891921059,-0.166627635835527,0.0937082495614904,9,-5,-5
0.681040772067418,-0.138948179938439,0.093190950254706,6,-26,-26
0.625273502224045,0.0524529223929013,-0.0342845462060954,-6,8,8
0.611677258713228,0.111902810146522,0.100988596140713,6,-17,35
0.723167506856362,0.220646153820435,0.077423850132194,12,-38,20
0.740206538854064,-0.258044771692168,0.0757891785244166,15,-26,-26
0.681040772067418,-0.152706673437579,-0.0783246330539078,-3,44,-8
0.575589053200189,0.180719302809181,0.0414362383024383,-6,-8,11
0.660212590498678,-0.177504183983286,0.0716816256488027,-6,-17,-41
0.573945154876384,-0.170209607432206,-0.0727222863749866,-6,17,-23
0.582452580228966,-0.142539747848581,0.0815265623654747,-12,-29,-14
0.730614904739431,0.0732364820033479,-0.145081963543003,-0,38,38
0.673444956411262,-0.170013487740033,0.136777683405492,6,-17,-8
0.575589053200189,0.0934403216881414,0.0849124697825493,-12,-23,5
0.746535096320353,0.148234204596947,-0.148282794835441,3,8,8
0.677724488788463,-0.185437742205062,-0.0651199504526433,9,26,-8
0.598401841381773,-0.127337368461313,0.0313260124708926,-0,-29,-5
0.547229715150328,0.0975308098919005,0.0349669084232405,-3,-20,8
0.737899868780558,0.0279886903265695,-0.143007184459787,0,17,14
0.627131387647044,0.0944400851435794,-0.0568230081070594,12,20,23
0.55687982105549,0.0343368539493833,-0.0923432564606442,9,38,32
0.704230315308095,0.0950971925941313,0.100045136602321,9,-41,17
0.598401841381773,0.0967262013710071,0.108699248340817,9,-8,14
0.619373022594004,0.16671611380805,0.0387653963788237,0,-23,20
0.558262945753067,-0.165456537161125,-0.0844045535056845,-0,26,-32
0.588734589379597,-0.173262479345413,-0.0601099526255695,0,17,-5
0.512066641250559,0.104999792753538,0.0440571111880989,-0,-14,38
0.680009243432049,-0.108598971579704,-0.129712258674208,-9,38,-38
0.703379738669704,-0.238859892164373,-0.100807674971149,-15,44,-20
0.717862247789792,-0.214053199152849,-0.131160954667341,9,20,-23
0.621461145250074,-0.173259571782453,-0.0802923910791383,0,26,-11
0.682106122426769,-0.161989377451835,0.0650895822659109,0,-5,-8
0.717862247789792,-0.125554010496492,-0.145257893244274,-9,11,-41
0.694738200941545,-0.140933737730575,-0.107585229175857,0,8,-32
0.697242836071915,-0.227811366607204,-0.0834887944684918,12,41,-38
0.723167506856362,0.218417337772707,0.119381322119369,3,-20,11
0.731339445748084,-0.173492697182176,-0.167025432970932,-0,29,-11
0.723732243777498,-0.0967998887198802,-0.0492417555532099,-6,35,-29
0.601919239302026,0.0678345104885544,0.054241490409088,-12,-38,14
0.610332413786892,-0.0370570826129886,-0.0475513714865556,0,14,-23
0.598401841381773,0.04417004308537,0.108615906423418,9,-32,8
0.528174706363777,0.088877053023559,0.0362554513786848,0,-11,35
0.554102880493105,-0.0975803285545742,-0.0749512496286666,-15,41,-17
0.665966740509843,0.126422699360445,-0.0576937547865374,-6,32,44
0.512066641250559,0.114051951962639,-0.0377022010408483,-3,14,29
0.585894073839033,0.181694566262883,-0.0815069393489144,12,11,17
0.481439430598325,-0.0419908542483284,-0.00401514680665602,12,23,-17
0.531922148886775,0.129026467809302,-0.0808975213444357,-15,14,44
0.506747472071773,0.0393484978680011,-0.025617683261359,12,8,38
0.636221594274387,-0.0707758318427926,-0.0873254669326261,12,26,-26
0.657021295967733,0.0944828988632746,0.0607466630929399,-9,-17,29
0.737899868780558,0.218788193027717,-0.115918048551758,-6,44,17
0.493730893026015,-0.0871831119174713,-0.0239862458312589,15,44,-35
0.565603439899791,0.0640502451863702,-0.0883325367674349,-0,5,32
0.740206538854064,0.113581397723688,-0.146445055362999,-6,20,5
0.596372481917594,-0.0444688162089837,-0.0264663405566538,-9,38,-35
0.627131387647044,0.182453211598347,0.100573125657819,6,-38,17
0.723167506856362,-0.0696728009569604,-0.0867801357415814,6,44,-23
0.723167506856362,-0.0435759959060046,-0.0186232478711892,3,38,-41
0.452242363120049,0.106663923335746,0.0325155784861514,0,-35,29
0.744362830254756,-0.180492742475957,-0.0923286532817957,-0,5,-29
0.531292990283199,0.10914824410567,-0.0798365016739559,0,8,26
0.654637070999967,-0.213175420740124,0.0930390880994259,3,-17,-29
0.492808380586953,-0.125747099344428,-0.0360495754038361,0,8,-5
0.71123415298338,0.154786157087269,-0.152315429840072,-3,38,44
0.744912924056242,-0.12636480571044,-0.118638735575556,6,23,-41
0.463904328501257,-0.0258998270456774,-0.0237947753811239,6,26,-38
0.513698772036106,0.0664688351456297,0.0166327024534804,-3,-35,8
0.744912924056242,0.212432124098831,-0.168673783615794,-15,17,11
0.740206538854064,0.0632582995890479,-0.116345911596391,9,14,29
0.598401841381773,0.0451165304344124,-0.0785605460196826,15,44,26
0.685409244117549,-0.0926630513731734,0.0594758651343166,0,-41,-20
0.463904328501257,0.0634521288386147,-0.00357432567835693,-9,17,23
0.729533300948912,0.190347339182947,0.0384979772114029,-6,-32,17
0.521830773663491,0.13344436845002,0.0610881645384245,3,-44,26
0.627853051107143,-0.082979470022657,-0.105664143407139,-0,41,-23
0.629705132645835,-0.212748584036304,0.107686552730099,-6,-38,-35
0.534037469652415,-0.128625664526301,0.0533595951114475,-3,-23,-11
0.681040772067418,0.0400735173457663,-0.0772377462615602,9,5,17
0.673444956411262,-0.208660783920326,0.0196021857853978,-12,-20,-8
0.552385491416328,0.110630373019377,0.0874772316034002,-9,-14,8
0.657021295967733,-0.0789896861389484,0.0683679714538463,15,-26,-23
0.673444956411262,-0.164178118596866,0.130360057631382,0,-38,-11
0.487093768090534,-0.0472926944816007,0.0449898350937562,0,-32,-17
0.704230315308095,-0.136386876492591,-0.051394327399053,-9,41,-44
0.599726603099637,0.159029004812768,-0.109515022894474,0,11,41
0.542513893328984,-0.0638352926196718,-0.0861135911107799,6,8,-32
0.62385829163317,-0.0649076609315035,0.0387995864230322,6,-32,-35
0.731339445748084,-0.0864661564488897,-0.111849200293505,-15,38,-14
0.730614904739431,0.160940246441111,0.119948408452449,-0,-44,38
0.708151393174738,-0.166539740634388,-0.154057543886292,15,5,-29
0.470678449675964,-0.100779548506154,-0.0403936616757668,0,14,-32
0.742520844389079,-0.236032086594183,-0.112062381820309,15,8,-5
0.505306941971453,-0.117473281414989,-0.0428945161452555,3,20,-41
0.522983256979463,0.141321685799641,-0.0195553447792918,-9,41,14
0.721522097843158,-0.191664671142525,-0.0426729832602191,-15,14,-26
0.666759901276643,0.206511166850177,-0.0204870244240539,-12,17,20
0.740852041058883,0.108287533385713,-0.0716029584033812,9,23,26
0.664157428682146,0.215581551087789,-0.0766273049896211,0,32,44
0.657021295967733,-0.0403955050234282,-0.0917988132479675,6,26,-35
0.619373022594004,-0.12836407990989,0.0845739191365,0,-11,-26
0.746535096320353,-0.171838235725009,-0.0608423708783306,-3,8,-14
0.64880626286925,-0.189472610928385,-0.128495672713184,-12,5,-35
0.528174706363777,0.117652254391928,-0.0493963256923726,-0,32,20
0.615649280928372,-0.0678308268203842,0.0162706098276938,15,-8,-35
0.695505985876635,-0.217749316192202,-0.0568645237859859,-6,38,-14
0.682106122426769,-0.185498956757369,0.0574073250108202,-15,-38,-38
0.509631837550535,0.126220462610901,-0.0556716530198121,12,20,44
0.617107287965001,-0.191886098651607,-0.0976059001808038,12,35,-38
0.723167506856362,-0.171033721735969,-0.0353543780873181,-6,32,-14
0.463904328501257,0.0240241607141773,0.00893431173894239,0,-29,26
0.64880626286925,0.13492358378709,-0.103205726805713,9,26,29
0.687422333492731,0.144009565312356,0.0502636424288831,-6,-20,20
0.606046763402456,-0.108367917802162,0.0723456422312575,-0,-26,-23
0.597382219546515,-0.111731058723058,0.00946599684972441,15,-5,-20
0.712959715206073,-0.245822881828995,0.0593760022960682,6,-26,-23
0.723167506856362,0.225007081998913,0.0941642369393662,9,-29,23
0.634950382416782,-0.140537253653875,-0.102362018058202,6,38,-8
0.737899868780558,0.0377755405892193,0.0874950178595263,-15,-8,23
0.705295391043508,-0.0717973501992967,0.101399527209619,-9,-8,-23
0.744362830254756,-0.188116847578044,0.0452590172647222,6,-41,-5
0.640588012591281,-0.135568625069113,0.0656933605113652,0,-8,-29
0.681040772067418,0.17611900776824,-0.0877995524143555,-12,41,41
0.589636622058164,-0.130094084521248,-0.0725289175338073,15,17,-29
0.550844558370774,-0.0638393334678416,-0.0643012545601322,6,35,-17
0.735907895160193,-0.271994644024707,-0.148426536307243,3,26,-11
0.586505772508228,-0.176457281162545,0.0718937330249795,-12,-8,-44
0.499373170911056,-0.106015422794593,0.0422028078468342,-0,-11,-32
0.735907895160193,0.0943139146525656,0.147723158967652,3,-17,38
0.721522097843158,0.246614855648702,0.134714293254907,12,-44,5
0.723732243777498,-0.147098039132821,-0.0907210435608534,9,29,-17
0.580233376204305,-0.174838220350609,0.039977106585368,9,-44,-14
0.654637070999967,0.15931607747785,-0.090127764471482,0,23,38
0.733162852971671,-0.0685433009701373,-0.168214833394293,-15,23,-20
0.634950382416782,-0.135354100938644,-0.0706994211645348,-15,29,-32
0.524947669151312,0.130966394308611,0.0249124752755556,-3,-5,5
0.568025157093101,0.0907373662640646,0.0417858739513288,15,-29,11
0.721522097843158,-0.193890331567067,-0.159123481266192,9,20,-29
0.636221594274387,0.169606430209866,-0.111172713989191,-0,32,23
0.744912924056242,-0.0652823934982676,0.0812804188312013,-15,-11,-17
0.629705132645835,0.0551042003238002,0.0548704934856118,6,-11,8
0.73699071366408,-0.229050931742893,0.147344270516731,-3,-35,-44
0.730614904739431,0.0292336372477653,-0.0346218840102702,-15,38,41
0.637195086704914,-0.092497369429605,0.0283381022956826,9,-5,-20
0.744912924056242,0.165331087054054,0.0902759892795179,12,-38,44
0.723732243777498,-0.167521676960622,0.0539991703318883,0,-8,-35
0.733162852971671,0.124918477168439,0.0795349731924156,-3,-5,32
0.46454923033632,0.100922249644643,-0.0210392557125447,-12,23,26
0.580233376204305,-0.148223080962753,-0.0979955759548746,-12,17,-44
0.488677100209499,-0.133606190764363,0.0415989988091004,12,-20,-29
0.717862247789792,-0.224509107373716,0.156022250252757,15,-11,-23
0.618209932631355,-0.0680193813080078,0.0245270501703718,-3,-26,-29
0.519417323522527,-0.0797829263437305,0.0268803913455072,3,-29,-44
0.573945154876384,-0.0788315340696951,0.086264148954962,15,-35,-44
0.606046763402456,0.0602777078383012,-0.0444611820951835,6,44,41
0.740852041058883,0.171831950918035,0.0913396872301664,-15,-32,8
0.64880626286925,0.160156230253391,-0.0503002908724746,-6,20,17
0.581654141891942,0.140309610948583,-0.0253295411916048,9,44,44
0.579636471574926,-0.133206952688287,0.0300333093404744,-0,-29,-41
0.555149249625611,0.0552613073490703,-0.0475289719878145,6,29,5
0.712959715206073,-0.106810695922183,0.0566457034432806,-6,-14,-17
0.644633343748756,0.0935730852857662,-0.127925252695694,6,41,38
0.747895718140797,-0.138168499071582,-0.0515011142632418,-9,17,-8
0.677724488788463,0.078366904073196,0.0830056629663297,-9,-29,20
0.697242836071915,-0.205133398845229,0.132131921065301,0,-32,-14
0.650060668512742,0.141625830251955,-0.109508608005543,-12,14,14
0.71123415298338,-0.20275410804986,-0.073254219610546,12,14,-44
0.645785453408633,0.124574042591843,-0.0321353534403681,-9,17,11
0.660212590498678,-0.231967488036816,0.0994972100901114,-6,-26,-14
0.553459947568172,-0.124015477984392,-0.0225981776973,6,5,-41
0.687422333492731,-0.080306751883443,0.0993764451431787,-15,-35,-14
0.687422333492731,-0.19147635310308,0.116470448378881,-6,-20,-29
0.604715257320011,0.036040431865241,-0.0230457375969363,15,44,8
0.701238134217034,-0.248168821164488,0.0496862851417173,-12,-26,-41
0.485067952351562,0.120739910510056,-0.0341419684068619,-6,44,32
0.701238134217034,0.185418299952497,0.135556723440801,-6,-29,44
0.73699071366408,0.0896920837366197,0.0974407676222404,-9,-41,38
0.606046763402456,0.159740163406023,-0.0945066469088688,-12,11,11
0.683823672524589,-0.0499805395237663,0.0104519921833571,3,-23,-14
0.690337468451368,-0.161208185503586,-0.14670664236494,-3,35,-38
0.637195086704914,-0.0362634454950898,0.0445399039477223,-0,-29,-38
0.681040772067418,0.11853435558219,-0.111516423949155,-3,35,23
0.634950382416782,-0.161494022685242,0.118448541914052,6,-23,-20
0.721522097843158,0.122005785631519,0.0417581091744139,-3,-38,8
0.742520844389079,0.250093165707968,-0.098367758222697,15,41,29
0.492808380586953,0.128372962494649,-0.0122022082291165,-6,38,38
0.625273502224045,0.204407282568598,0.0974396882068881,9,-38,8
0.703379738669704,0.145562679315636,0.146036983540994,-3,-44,11
0.618209932631355,-0.177916963505289,-0.113219323120873,9,35,-8
0.696310290394219,0.0708355103948431,0.0963851712224258,15,-38,20
0.704230315308095,-0.172501490795883,-0.0251428102918205,-15,11,-29
0.627853051107143,-0.0967558350684865,0.100638056377127,-0,-41,-35
0.744912924056242,0.131195810725307,0.160673811044531,6,-29,17
0.721522097843158,-0.0556211885826265,0.158435325128441,0,-38,-5
0.571115790789399,-0.121039691942331,0.0758530457688558,-6,-23,-23
0.604715257320011,-0.04776895116221,-0.0902366401516805,-9,11,-14
0.553459947568172,-0.170524205504375,-0.0271627623764722,-9,20,-14
0.733162852971671,0.0530282271001741,0.136936364122407,-6,-8,26
0.687422333492731,-0.201943300030475,0.0303597848927306,12,-11,-20
0.694738200941545,0.144982878747616,-0.0981972987098122,15,14,11
0.730614904739431,-0.18017772223328,-0.131594389509259,-3,29,-20
0.576448326547595,-0.0717337824723064,0.0746374967227111,9,-23,-5
0.629705132645835,0.149468764207925,0.0866732987719186,15,-14,8
0.567372997531705,0.0516694715036912,0.0946862719258548,-3,-17,23
0.681040772067418,-0.15610919314947,-0.0513470311633688,-3,8,-26
0.666759901276643,0.0861936536111559,0.125064223110617,15,-5,35
0.740852041058883,-0.18681030548225,0.0634348415538539,-9,-23,-23
0.58479301820054,0.131220530914482,-0.0718948227213166,12,20,35
0.573945154876384,-0.168400263168221,-0.0160510468285255,-9,14,-11
0.708151393174738,0.240295537569337,0.13938525505543,15,-5,26
0.629705132645835,0.206862874574062,0.0968495711554734,-0,-44,41
0.534037469652415,-0.0805724940950369,0.0142969188803388,-9,-35,-38
0.671666219380032,-0.168493983175447,0.103485859932917,12,-23,-38
0.703379738669704,0.164739598446127,0.0451232582301704,12,-8,14
0.521830773663491,0.131637735733576,-0.0251522152011219,3,17,8
0.493730893026015,0.0410826878547485,-0.027814328219046,9,11,8
0.712959715206073,0.220905960493314,0.101691348345229,-6,-5,38
0.611677258713228,0.0313293004270007,-0.0913609149596982,-15,14,23
0.506747472071773,0.0760360078104806,0.0330224765482099,-0,-5,14
0.712959715206073,-0.259975701542232,-0.12524564372717,15,8,-29
0.694738200941545,-0.072190928638017,-0.0758009861128643,9,5,-41
0.561147633172964,0.0305534735815776,-0.0131337519461733,-15,32,44
0.725294071120448,-0.138679040282105,-0.148522452153441,-12,20,-5
0.723167506856362,-0.0442170617721882,-0.0617259081651828,-15,23,-14
0.524258802333554,-0.13098692045108,0.0112033888131217,12,-20,-20
0.700206053109286,0.0475059020940936,-0.0454751112169532,9,32,26
0.723167506856362,0.0998524844314663,-0.0312745584981513,-12,23,11
0.585894073839033,-0.18811307877369,0.0545618638314442,-6,-5,-26
0.474644139630667,0.118177890208475,-0.0262931882487855,-3,44,41
0.621461145250074,0.115738880280785,0.0820008201880864,-0,-11,38
0.695505985876635,0.247442442676825,-0.0608030728745965,0,5,41
0.712959715206073,-0.0744671306136043,-0.155938102380257,-15,41,-32
0.570341384172566,0.0881068704793379,-0.0738006624190661,12,38,26
0.615649280928372,-0.0522622615222835,-0.0740800097739052,-9,41,-5
0.578363115393894,0.159845740578422,-0.0789652985330695,9,20,11
0.746535096320353,-0.1319590267061,0.113110952548448,-0,-11,-14
0.625273502224045,-0.089280434655446,0.0583669278285836,0,-5,-26
0.619373022594004,0.0668408171906053,-0.105579358196553,12,11,32
0.581654141891942,0.0166383006304832,0.0633334474288507,15,-8,8
0.576448326547595,-0.0380916956007979,0.0833758526403224,-3,-29,-41
0.545783249527285,-0.0705277759441527,-0.0550782561264695,6,29,-29
0.506747472071773,-0.091916262136842,0.0361669893725102,-9,-17,-44
0.646789986089069,-0.0976808962916451,0.0518136631664191,-15,-17,-41
0.553459947568172,-0.0928039248416182,0.0196136039091944,-6,-11,-5
0.660212590498678,-0.204931443872611,0.10782612898935,3,-8,-5
0.708151393174738,0.100985630675446,0.153603369012752,12,-41,29
0.681040772067418,-0.0815430248107429,-0.143293417781822,-6,14,-14
0.631317728260311,-0.188182305985115,0.103157081166706,3,-5,-26
0.640588012591281,0.0303348571691925,0.0410041016431488,-0,-26,44
0.731339445748084,-0.175118794948321,0.0311636786149839,-0,-29,-32
0.627853051107143,-0.0834972743406948,-0.0399069317042992,9,32,-35
0.485067952351562,0.0653248399320545,-0.018428369068556,-15,38,26
0.545783249527285,-0.0514615215602398,-0.0107476240787794,-6,26,-20
0.631317728260311,0.148676838513865,0.0353331243527317,6,-20,11
0.71123415298338,0.0755237197319211,0.0798682057226678,-9,-35,11
0.712959715206073,0.209021987099771,0.134001561919513,-9,-20,38
0.606046763402456,-0.133624517355179,0.100084847718613,-15,-20,-29
0.705295391043508,0.124285088668497,0.0335148891808626,0,-14,35
0.700206053109286,0.153656780099565,-0.0819033959117296,-3,32,14
0.627853051107143,0.172376533181616,0.0495256649382954,12,-35,8
0.725294071120448,-0.105529949765652,-0.146009593819989,-15,38,-23
0.558968547849608,0.0430283302693129,-0.0663823747949138,6,26,8
0.531922148886775,-0.0731333277461486,-0.0806706870347875,-12,17,-26
0.457250432748095,0.0529209831756845,-0.0491846924803074,-6,29,32
0.694738200941545,-0.161971458379095,0.0697567529461932,-6,-26,-17
0.733162852971671,-0.189058487752063,-0.0804395967758664,0,32,-35
0.665044397961806,0.137025055446459,0.0141106939029716,-12,-20,14
0.742520844389079,0.223161887386221,-0.0809469762236967,6,11,23
0.54960809570619,0.0460252684765857,-0.0135728874775015,12,5,11
0.71123415298338,-0.192753821585137,-0.115201961733005,6,17,-44
0.744362830254756,-0.201365901465083,-0.127758144966983,-6,32,-26
0.703379738669704,-0.20958241535753,-0.131544073596325,12,32,-41
0.555149249625611,0.101886732662173,0.0357645905704917,-15,-23,35
0.631317728260311,-0.183528923861092,0.0757444351512616,9,-5,-32
0.644633343748756,0.118235653536115,0.0662865757767188,-0,-8,20
0.574746927762647,0.0122848415794262,-0.0609468670956675,0,32,32
0.735907895160193,0.217085377677973,0.116677357105903,6,-38,23
0.671666219380032,-0.185081741731669,0.107649096613653,-15,-41,-23
0.568025157093101,0.113319912042363,-0.0956197978336707,3,44,38
0.580233376204305,-0.10972872033434,0.0247255067128522,-12,-26,-17
0.656182690157232,-0.139414386236081,-0.0448663958237428,6,17,-5
0.700206053109286,-0.226976248570207,0.14053286839887,6,-32,-38
0.662913812404226,-0.222984529814561,0.053693025537566,0,-41,-8
0.694738200941545,0.24449272407014,-0.144312261803257,3,26,38
0.510568109076156,0.0926381339981071,0.0369862903907661,-3,-44,29
0.629705132645835,0.173691885685652,-0.0759818919916619,3,14,38
0.545783249527285,0.0432624476777379,0.0721539988454565,-15,-38,11
0.708151393174738,-0.232865349605299,0.0894293478561831,9,-14,-14
0.744912924056242,-0.273916452610532,0.0760954742156738,15,-20,-11
0.664157428682146,-0.0480483284869676,0.0332721806402327,-15,-20,-14
0.476083259478917,-0.0857130801624488,0.0533504979647764,-15,-29,-23
0.744912924056242,0.233250860209357,0.0473812859379734,12,-38,5
0.677724488788463,-0.0348034549639604,-0.0198011049458096,3,23,-38
0.598401841381773,0.160047307291984,0.107721322673741,-15,-35,5
0.58479301820054,0.118758070321923,-0.0394530924227969,-15,44,32
0.627853051107143,-0.159390504361912,0.0736466369143987,9,-35,-17
0.502022006739333,-0.130461173799497,0.0607330674139268,3,-11,-29
0.723167506856362,-0.043524263557412,0.03401335767557,0,-5,-44
0.666759901276643,0.231850232659929,0.0263136947390907,3,-38,26
0.673444956411262,-0.0478761758791853,0.132432923618412,-9,-5,-44
0.712959715206073,-0.0971742126762659,0.159270092385248,3,-29,-38
0.742520844389079,-0.242765616330605,0.0452600339325432,3,-44,-20
0.54960809570619,0.162148191198693,0.0226044236560676,-9,-38,17
0.642946751630245,-0.117708681196742,-0.101758799971649,9,23,-8
0.561147633172964,-0.109486892590951,0.0930805521162524,0,-29,-20
0.687422333492731,-0.21772961096648,0.031750594379223,-12,-38,-32
0.535376663493853,0.0833259709775798,0.0557183173083987,-15,-44,38
0.697242836071915,0.160597158649052,-0.150771205758854,3,35,5
0.649406116180734,0.168630879220784,0.0925337292254893,-0,-20,23
0.512703516795685,-0.102552389323016,0.0498346498361348,15,-8,-17
0.622795806353832,-0.0721649871575673,-0.0844417209233844,3,8,-20
0.561147633172964,0.149132195944607,-0.080939747785278,-0,17,41
0.655320947290798,0.18657494848815,0.108641600129487,-3,-17,11
0.747895718140797,-0.182140330024521,0.0872558651158078,-15,-44,-14
0.731339445748084,-0.235437626750084,-0.128575350585455,9,44,-8
0.654637070999967,-0.118101559061884,-0.0889356925801699,15,5,-41
0.555149249625611,0.0707346208386937,0.077632956380534,6,-41,17
0.527371611182505,0.0701404922990867,0.0544326449310223,15,-20,38
0.622795806353832,-0.175813931663901,0.0377748477847053,0,-44,-8
0.535376663493853,-0.155639458844348,-0.0518136869351897,15,26,-32
0.717862247789792,-0.21182950744046,-0.158724219379427,15,11,-41
0.597382219546515,-0.0585484267012247,0.103567459264924,3,-5,-11
0.716529676754128,0.196229870572668,0.118605148086252,0,-32,5
0.727109908934504,-0.0842797598990554,-0.0697188231750765,-9,11,-44
0.670546870128845,0.142722630984542,-0.056814068834587,-3,8,29
0.457250432748095,0.0105243700319531,-0.029608834510453,-6,5,23
0.689618558171619,0.190026117209298,-0.14073147261046,15,17,38
0.73699071366408,0.139455057853176,-0.0921735992474343,-3,17,17
0.576448326547595,-0.0634864570549303,0.095957601247846,-0,-17,-35
0.733162852971671,0.228988181856973,-0.0427927774869707,0,11,17
0.510568109076156,0.0665524153668844,0.0705073999782519,-9,-17,20
0.583886897396264,0.0495434535513668,0.0828515148798468,0,-8,11
0.512703516795685,-0.126163158390865,-0.0337500035615416,-6,44,-5
0.671666219380032,-0.0936564745648314,-0.119876469634726,6,20,-38
0.708151393174738,0.231956541065229,-0.126478702808753,-12,8,20
0.499373170911056,-0.0764100749979183,0.0507150340915096,-0,-8,-14
0.727109908934504,-0.0785358838934054,-0.0168730231449516,-12,32,-29
0.582452580228966,0.184149120624459,-0.0380282468376134,-6,8,44
0.73699071366408,-0.0928854702452767,-0.1512195205016,-6,35,-35
0.597382219546515,-0.164598507612602,0.109293332899459,9,-32,-38
0.622795806353832,-0.210349316153593,0.10338842476072,-15,-35,-41
0.695505985876635,0.155110698640022,0.118834478373111,-12,-5,44
0.725294071120448,0.211585939067976,-0.040928012409303,-3,23,8
0.680009243432049,-0.090019489665479,-0.134519617539286,15,29,-26
0.703379738669704,0.0714224696560483,-0.0792665312420061,-3,11,32
0.685409244117549,-0.214808964377865,0.138046381673898,6,-20,-14
0.606046763402456,0.0253933058279827,0.0747174090201612,9,-14,20
0.693689892148841,0.129640291949149,0.0288642672584812,6,-20,35
0.543453239377391,0.10484662256827,0.015228627572497,3,-11,26
0.735907895160193,0.220400326182446,-0.084058717781865,-9,29,41
0.650060668512742,-0.0526687373379995,-0.114738073136049,15,14,-35
0.697242836071915,-0.220723824632186,-0.10486049309215,-9,8,-5
0.737899868780558,-0.156328659401133,0.153659536640393,-12,-8,-29
0.664157428682146,0.047970277855492,-0.127699963299741,-12,23,20
0.727109908934504,0.250543169382364,0.162828969299354,-6,-35,20
0.633903015364953,-0.19574791727505,0.105164673454517,-15,-17,-20
