X,Y,Z,R,P,Y
0.68182069251084,-0.244533990682895,0.0585537389068304,12,-14,-17
0.559064357302471,0.115226507783518,-0.0716056363436138,-9,5,26
0.679594809808432,-0.173691256204813,-0.0532713362195443,-6,17,-29
0.529093466637301,-0.144475537185255,0.0257829897161095,-12,-32,-17
0.696709999711331,0.213472707733703,-0.12897671031839,-12,32,5
0.627606764853831,0.159993524844471,-0.0521385556238517,6,38,26
0.688361510037738,-0.213357840676434,0.047191389690599,-12,-35,-44
0.695821415801284,-0.248006645441512,0.0905224110464254,0,-44,-17
0.63273399321264,0.0388589552850119,-0.0476004365444167,3,38,44
0.653333103989171,-0.0927692894117093,0.122111234249477,0,-5,-20
0.701299232016113,-0.102236389437599,-0.0538221114233965,-0,38,-20
0.733347806820301,-0.141230188334364,-0.132670602451709,-0,29,-14
0.680211297245832,0.237587606475941,-0.0648482933156588,-0,20,5
0.62277145176308,-0.105710966793444,0.0960049147999358,0,-23,-20
0.644293990015159,0.137177499894664,-0.0444508773703319,-12,8,35
0.697434578184462,0.155226723378785,0.0683187396764029,6,-14,44
0.463817591076269,-0.101036271403299,0.0375934180009074,-3,-29,-14
0.660519419255137,-0.107507681042925,-0.100318443668574,-15,5,-41
0.605135935126475,0.11203878424246,0.102203901707108,15,-20,29
0.634942978469081,-0.132154344860769,0.0230606474449981,-6,-5,-38
0.553823035684472,0.153992782288729,-0.0442201411630349,3,11,5
0.712109308692411,-0.261404524073045,-0.0517081200753065,-12,32,-8
0.460736917821136,0.015361294701689,0.0287946944187183,-3,-8,35
0.62277145176308,-0.148182659382856,-0.0830167020798956,-0,14,-35
0.704279929128917,0.0874872157025129,-0.150495385359416,-9,5,29
0.745780677768877,0.0919306217867293,0.034384348621189,-6,-29,11
0.589467193477701,-0.125657313744197,0.0623836841759874,12,-20,-35
0.698172928548205,-0.0643992569037076,0.132260235956977,9,-5,-38
0.732427757066498,-0.219476396731711,0.104580574229021,3,-38,-17
0.735578819682016,-0.0777399921562889,0.0313380654594605,-3,-44,-32
0.630195899223905,0.188725541702806,-0.0572420127943969,-3,14,14
0.738568991027171,-0.198549961401871,-0.133856560046367,-6,17,-8
0.729330027293675,0.138043725354096,-0.104153747150696,-12,14,14
0.648881514888744,0.109844221540239,0.0500106220012305,12,-26,29
0.690402039178853,0.166837786007995,-0.133719362377419,-12,44,23
0.678859609380326,-0.204492131686298,0.100263381238178,-12,-38,-41
0.688361510037738,-0.0458774056415829,0.100934378955068,-9,-38,-23
0.73174621384682,-0.0563643882122832,0.0121591487048813,-9,-23,-17
0.566859278364792,-0.145716472482388,-0.00508387040855883,6,38,-35
0.732427757066498,-0.0642918947707574,-0.0477280451372392,0,11,-11
0.653333103989171,-0.0578349929023843,0.0591833708586401,0,-20,-8
0.574030676697135,-0.150766448229265,-0.0621900051511107,3,20,-41
0.68182069251084,0.0806785931438335,-0.135905157344154,0,32,26
0.468665515542586,0.0154343994153007,0.0429871735232749,-0,-26,8
0.563742242394098,-0.0610035003043132,0.0786031319716304,6,-20,-44
0.723777188992966,0.232049938697043,0.0758261769657113,-9,-41,44
0.695065634202113,0.092510732612798,0.0324183178990602,15,-20,11
0.653333103989171,0.0424210724355358,-0.11936200529006,3,5,38
0.698172928548205,0.16462202523796,0.128738213760035,12,-11,8
0.74252086987699,-0.0660374143702785,0.0215188724147989,-9,-38,-26
0.611609396644314,0.0762887677823035,-0.089104074706486,0,17,44
0.540980492366807,-0.0574670865956608,-0.0317149638063332,-12,32,-32
0.607726061989176,0.0609340550220285,-0.0741613892555135,-9,26,32
0.631333513416942,-0.17184434230976,-0.0813803761103828,-3,17,-32
0.488036410976997,-0.0406429733824712,-0.0569014110600068,-15,20,-41
0.678859609380326,0.229028160473105,-0.111297397267358,-3,41,23
0.707431811803913,-0.0665691000435124,0.154131243345345,15,-35,-38
0.606399715167709,0.170994088990129,0.0862496648630858,0,-41,14
0.606399715167709,-0.0371676533895348,0.0401470677191135,3,-41,-29
0.651963440518233,-0.185699293309164,0.101147192644602,-6,-14,-5
0.627606764853831,0.196511005335246,-0.0491467673484582,9,11,20
0.63273399321264,0.0691056411781161,-0.0592589013310556,9,11,11
0.737255727636607,0.129515321989547,0.0332113420507782,9,-26,29
0.610377282632653,0.197262516709283,0.060732200843694,-6,-14,38
0.597422947877572,-0.168405386567855,-0.0407252989946708,3,41,-35
0.609760623465584,0.125070255778002,-0.0687933192661106,6,11,8
0.723777188992966,0.151609138698928,0.155123640577022,3,-14,44
0.736439622819473,-0.109160102755518,0.0785649448343281,-6,-23,-32
0.732427757066498,-0.21601933264508,0.0775621780190904,6,-26,-23
0.680211297245832,-0.21503283390535,-0.115611321697239,-3,32,-23
0.719909443287069,0.0559411941277917,0.158399368867082,-3,-8,32
0.734957625632886,0.165263889241357,-0.126568366484715,-6,14,35
0.724786683541587,0.244392891662275,0.140441639050976,-3,-14,29
0.678859609380326,0.189417215160349,0.0465964183690198,-12,-5,38
0.690402039178853,0.153767623741667,0.0799472297066321,15,-29,23
0.56886065905798,0.170190073048782,-0.0403832587139246,12,29,20
0.552570434375187,0.037243162583797,0.0264741237311324,3,-32,29
0.689611553018138,-0.104916166423686,-0.0962354755320541,-12,17,-29
0.713701482410266,0.18960413871005,-0.0314919463527879,6,29,26
0.698172928548205,-0.190512278122423,0.123387770529155,15,-11,-17
0.704973353399469,-0.0495737429455432,-0.124301912777374,6,29,-32
0.651963440518233,0.0865475636969441,-0.0821261548065963,3,20,26
0.611609396644314,-0.125409079253864,0.0500717885015425,3,-32,-35
0.721512673654174,-0.0779024169172562,-0.109563758662652,-15,38,-29
0.695065634202113,0.0489608649133052,0.12142719403438,-3,-44,11
0.491547044194498,-0.0983227686699288,-0.0375209637366319,15,35,-44
0.698172928548205,0.217187392234427,0.0794252523529844,3,-17,20
0.552570434375187,-0.086628289191207,-0.021141371774214,-6,11,-23
0.534396463396542,0.068339402029987,-0.0754923140252095,-15,8,14
0.592284914878724,-0.144260190647945,-0.0568838457605439,-6,26,-20
0.698719412411193,0.205005214394803,-0.0221055216036411,-6,5,35
0.657852353680414,-0.133169079695161,0.114934346910334,9,-11,-41
0.747749645440661,-0.172228528901795,0.0472200260825744,-6,-44,-8
0.627606764853831,0.116887682194843,0.118408767919064,0,-29,20
0.45022961455795,0.0210286222090647,0.0179014299235284,-6,-8,38
0.737916791574295,-0.107663374459773,0.0623235194312046,-0,-23,-8
0.700260126370431,0.191969453043064,0.0815224551924422,9,-29,11
0.74252086987699,0.202675063673454,0.164074868883537,-6,-35,29
0.705687280670888,-0.143858153141614,-0.122560440257121,-12,20,-41
0.73174621384682,0.232203103664753,0.0187034509008062,6,-35,23
0.747749645440661,0.209601732356743,0.0410435323269567,-0,-29,41
0.739957417107168,0.0411852587705005,-0.100545014567216,9,14,26
0.630195899223905,0.109725469224788,0.0902416879116418,-9,-41,29
0.698172928548205,-0.224741111434831,-0.115491282403041,3,32,-38
0.709125116542037,0.13428500237093,-0.0720966799881698,12,23,32
0.684836063898565,0.141500032129678,0.141219906733706,9,-23,14
0.738568991027171,0.141916448870759,-0.0852569855055738,15,8,11
0.557924787423219,-0.0371338466040421,0.0243589636750271,-9,-32,-32
0.628220079828813,0.0570361735729592,0.0903275000822153,9,-8,11
0.686059623032176,-0.151311427311901,0.0379123088246904,15,-29,-8
0.74252086987699,-0.136857076037109,-0.109687665585555,0,5,-35
0.743870977034849,0.105593716052163,0.0374203834827493,3,-8,26
0.718769649047615,0.202469443727631,0.0732320385623481,12,-20,26
0.689611553018138,-0.115950687689203,-0.0395528014886426,-0,23,-23
0.493550996047583,0.135309751816577,-0.0409142418531149,15,35,32
0.745780677768877,0.193689957195195,-0.0872131883473472,-12,14,26
0.695065634202113,-0.142368695601534,0.129585477588267,6,-17,-44
0.705687280670888,0.0669051481866664,0.088434968524521,15,-38,20
0.712109308692411,0.0705193340701611,0.0931743526910322,6,-11,44
0.700260126370431,0.144680657046268,0.119307121156108,6,-32,5
0.737916791574295,-0.151164408916208,0.132452524242359,0,-29,-17
0.725356247618636,-0.182228823367779,-0.13357370652944,-6,26,-26
0.663739703131291,0.202703884610007,0.0623692841119004,-0,-29,29
0.715208089964081,-0.0416143673240405,-0.131565668077365,-12,29,-17
0.736439622819473,0.178340176462719,-0.121412691048322,12,5,20
0.562431478751044,-0.121118625168654,-0.0841749205184537,9,26,-14
0.574030676697135,-0.0583094076720182,0.0388278351365737,3,-20,-35
0.713072312024784,-0.258158097720374,-0.0628363931768103,-12,38,-29
0.565802621151395,0.0953000216777891,0.0399497945895119,3,-8,23
0.713072312024784,-0.0844131856706734,0.0825493239390439,-12,-20,-32
0.550146743207978,-0.0310756826447664,0.0352500007981618,3,-20,-32
0.73174621384682,0.147442139172583,-0.12178639024115,12,26,14
0.67663912516699,-0.166129035015733,-0.099723889900354,3,29,-29
0.660519419255137,0.165377441478533,0.020011951194746,-0,-17,23
0.684836063898565,0.20372958082256,0.0203121465100946,0,-11,5
0.714312494788153,0.0592135594917219,-0.0912338166967253,9,38,29
0.718769649047615,-0.116385251207592,-0.0876694255565047,15,23,-26
0.697434578184462,0.193921254860509,0.124184972173178,-6,-41,17
0.596674429610447,0.032579934582495,-0.0724015009981206,12,41,17
0.704973353399469,0.195793461287136,0.046768571802086,-12,-17,20
0.673432264705182,-0.0912958714270739,0.0681344386552209,-3,-38,-41
0.737255727636607,0.0646130985079912,0.115987869560992,3,-8,41
0.721512673654174,0.217828468498774,0.0773432875325551,-12,-41,8
0.737916791574295,-0.271719270706002,0.127961745316818,12,-26,-38
0.697434578184462,0.0978677723424998,0.0492559553924136,-12,-17,38
0.738568991027171,0.17188208968301,0.0697087197103078,-15,-44,14
0.715830035750199,0.195499596788515,-0.0907971426877397,-3,26,32
0.73174621384682,0.238705341126397,0.0846845720172458,3,-20,20
0.729330027293675,-0.111855450101999,0.0692381938030249,-15,-8,-23
0.497616993082858,-0.114061081856184,0.0219341902214369,-6,-44,-38
