X,Y,Z,R,P,Y
0.626001848335747,0.114572628188861,-0.111819288612059,12,8,32
0.675241092767835,0.166745317771057,-0.0220464781909993,9,26,11
0.674483835451007,-0.154286135434316,0.129631146526448,3,-32,-29
0.723873305662422,-0.168420724914261,-0.0496974198273707,-6,5,-17
0.708409799411571,0.132936554947921,-0.139222674228209,-9,29,5
0.565104244008244,-0.0274127532807006,-0.0322266246177023,9,26,-20
0.476602741786825,-0.0944304540663187,-0.022870428051132,9,14,-41
0.72236089645693,0.0852490147625698,0.109238294073563,3,-5,23
0.490045003187464,-0.117471959894594,0.0311370830434552,-3,-23,-11
0.6759857579206,0.10870660511094,-0.0929660472155778,-9,35,41
0.674483835451007,0.0510621558183067,-0.0576265852841791,9,5,44
0.709234437522917,0.117031531553434,0.0603510027812949,-15,-41,14
0.661355889321587,0.19363728638553,-0.119002876680926,15,20,5
0.571098882375466,0.159986727453138,-0.0232070905279621,15,41,8
0.6275237714035,0.140407730271664,-0.0763830152032944,-6,26,44
0.650643633162671,0.11066421574982,-0.130600714537948,12,41,44
0.634369502577447,-0.0389821873589683,0.0472044199202506,-12,-5,-11
0.744614729139476,-0.192182010227806,-0.0554646998923871,15,14,-8
0.642678054051656,0.0573964602811789,-0.0964152747233034,6,41,5
0.505339040409706,-0.139108051317322,-0.0603578564572669,-6,32,-35
0.654462345320539,0.199369966198379,0.0892573319989344,-15,-14,38
0.643241568364607,-0.107006608650279,-0.0979453816097508,-15,5,-20
0.452784393646134,-0.0401522430209619,-0.036435900166085,-12,26,-8
0.730068739496519,0.0227814241606319,-0.10344926179842,-3,38,35
0.518823552340638,0.123691647321442,0.0351759527125552,9,-32,14
0.743098887624018,-0.0938618934506093,-0.14412040178782,3,29,-23
0.744614729139476,0.147998191773414,-0.171575408298042,6,41,20
0.714506916164607,-0.199619242567717,0.0159754276193117,-12,-35,-20
0.609995564641276,0.195070091663449,0.11517604688859,12,-23,8
0.503295335541019,-0.0777401089787141,-0.0142507613839874,12,44,-35
0.625278528130545,0.0585691972526898,0.0516110044239817,15,-35,41
0.516194079245673,-0.0568593886444873,-0.0425453605037744,-0,38,-26
0.743827859601263,0.236316689749103,0.0904081509909281,-6,-17,11
0.620791090515314,0.156009450170198,-0.0368326975422473,9,17,44
0.516815218456056,0.0872930519964445,0.0467600334530736,0,-20,17
0.579048317674018,0.149989689285855,-0.0734414594066656,-9,32,44
0.725615165873349,-0.225408264009136,0.0844774400529426,-3,-38,-20
0.722884555673955,0.112699597904557,0.140824626554369,-15,-20,44
0.64173525768687,0.144904642893656,0.101727125418956,6,-20,17
0.682740786788761,-0.132490841895471,-0.0344763001853984,0,32,-20
0.713949134730679,-0.145090464810678,0.0715718637545467,-0,-5,-44
0.560315366891489,-0.0925243807435136,-0.0416168889025576,-12,14,-26
0.661355889321587,-0.195902860366496,-0.0207719841344175,-15,26,-17
0.636526439141043,0.0479342686431215,-0.0572055113728999,0,32,29
0.650643633162671,0.139287523866001,-0.0276132937957807,3,20,5
0.519602281470874,-0.0820431365412951,0.0240801900835648,-3,-35,-5
0.728991314639491,0.163152678728404,-0.0872812614419021,9,17,20
0.563260037335946,-0.0986977762131963,-0.0701909637698859,-12,38,-23
0.711912417946001,-0.174712739157455,0.0416834063305911,-6,-17,-5
0.677105137734436,0.0883252529572023,0.0727860137449697,-6,-20,29
0.534485526955066,-0.0609962479482497,0.0596217704230222,3,-32,-41
0.674483835451007,-0.1554699643327,0.0427709960405479,12,-29,-35
0.649232143873516,0.100305110832645,0.127189239677452,15,-44,20
0.565104244008244,-0.0410438378553595,0.0843916953679619,3,-8,-23
0.718760750441314,-0.0465249592194223,0.0363189207882677,-6,-14,-35
0.563260037335946,-0.172033710056124,0.0206682662212949,3,-29,-17
0.693397900048322,-0.103707351928927,-0.0289261088855945,9,23,-35
0.710720349750407,-0.123537263621939,-0.0677022162962022,-15,26,-29
0.724496923852428,-0.140149286916514,-0.0928268163416908,12,32,-32
0.62025402330873,-0.149057560986583,0.0568254961907995,9,-41,-44
0.655576038008071,0.110756248481219,0.0251648139532682,-0,-38,35
0.620791090515314,0.129947222494658,0.0339873365520813,0,-32,32
0.532812623764719,-0.105215732029924,0.0343890676534562,-3,-41,-20
0.72796469025728,-0.0795504204965197,0.0728181282780078,-6,-8,-41
0.615943344230583,-0.0154731478844035,0.031448354513009,12,-8,-23
0.642678054051656,-0.15006779800309,0.056827767586434,-15,-41,-20
0.453769334501238,0.0995676308010493,-0.00736268815582977,-12,17,32
0.714506916164607,-0.213894417252243,-0.0773079646920136,-6,38,-44
0.474017397875916,0.0546153371727839,-0.028687303872633,15,20,23
0.721099446122402,0.128074303331621,0.0791300069941954,-0,-44,17
0.462459654036697,0.103117124939603,0.0474986477068365,0,-35,35
0.677105137734436,0.0535335140425179,-0.128716775225153,-0,38,44
0.738948702197688,-0.231457820651277,-0.0928268307753045,9,8,-5
0.518823552340638,0.075131837636013,0.0304220453078938,-6,-20,23
0.533444032824377,-0.0790773728281472,0.0813350532342088,-9,-17,-29
0.606253501424821,-0.177529549046366,-0.0655864231965609,9,20,-38
0.677105137734436,-0.0702752221239552,-0.121555516302973,3,41,-17
0.639055629678,-0.108483176710105,-0.116999302826936,15,29,-38
0.606253501424821,-0.113484222208286,-0.0985675048669554,6,14,-20
0.741631310480598,-0.12289345191111,-0.0911348397255659,15,5,-23
0.687134470298204,-0.196411801716557,0.087226955108392,-15,-32,-35
0.674483835451007,-0.0685280993563946,0.128769988589157,-15,-20,-26
0.650643633162671,0.0393767275489493,0.121736357578392,6,-23,5
0.632631690783668,-0.0394545795336208,0.0880683277983933,6,-35,-23
0.703393870067743,-0.144999919942696,-0.0518905325666975,9,44,-29
0.743827859601263,-0.129503336961517,0.107055089832656,9,-29,-11
0.683348085043692,-0.157677093823087,-0.10462970048922,-3,38,-17
0.56818353752204,-0.0581148948328767,-0.0789664928357439,-3,41,-5
0.6759857579206,-0.0867822158659238,-0.0915878843352847,-6,11,-11
0.56579404597033,0.134141617631689,-0.091945829082358,-0,26,20
0.647648084176884,-0.0359794725102792,0.092036111459418,-3,-14,-8
0.557397828681118,0.139091332009767,0.074710433525569,3,-20,38
0.737072197240872,0.0661882816772655,-0.0508807266692046,-3,41,32
0.455447436322698,0.0861810559707063,-0.0384319663343151,15,11,11
0.704160892950525,0.206737898039893,0.0458994641815107,-6,-41,14
0.72796469025728,-0.0629367235358485,-0.130396650766805,12,14,-38
0.718760750441314,-0.173918535847184,0.07935494217632,-6,-5,-35
0.578351585634184,-0.131992643719863,0.0296232456031628,-12,-38,-29
0.709234437522917,0.193161762353877,-0.0786020201158174,-0,5,29
0.652407389697544,0.112487438316028,0.0617826605104554,-3,-38,38
0.664201052089968,-0.0699642261405949,0.102238139290611,-0,-41,-17
0.650643633162671,0.0640196961788889,0.125894649329786,9,-23,5
0.725615165873349,-0.152689649525616,0.0546425264575123,-12,-32,-35
0.659642495086486,-0.111563932019542,-0.132042162712943,-9,32,-38
0.712669812699873,-0.185954619153228,-0.156762450846128,0,44,-32
0.737072197240872,0.16136640148523,-0.0490088832131412,6,35,5
0.721099446122402,-0.235343766785656,-0.0665767359408668,-9,11,-41
0.636526439141043,-0.152947650828893,-0.0233130984753015,-0,23,-23
0.724496923852428,-0.244998622849804,-0.0342688220803977,-15,32,-44
0.60428026399712,-0.114268618202425,0.093332304003093,0,-14,-35
0.69746576036053,0.0964206828214557,0.0713280391896393,15,-20,35
0.556843327407837,-0.12635949937163,-0.0208764780938698,0,20,-44
0.696197085773757,0.201247753577834,-0.0601859319252913,15,38,5
0.64173525768687,0.0985106845713607,0.0732279815136979,15,-8,32
0.595325131760778,0.18470077545511,-0.0276752849773251,0,5,20
0.514850972548497,-0.0391791507048798,-0.043541985541373,3,11,-17
0.741631310480598,0.17680131078074,0.0315395293246518,-0,-17,8
0.613603656123059,0.11489776014048,-0.104429167118118,15,8,5
0.72236089645693,0.0698414850244062,-0.0639431340264179,-12,41,29
0.738948702197688,-0.126494042006363,0.0890684512523299,-9,-14,-44
0.594244347010529,-0.0225029444853321,-0.10016590057195,-9,23,-41
0.584696830328428,0.0887239038899462,0.0496425565820542,12,-17,44
0.714506916164607,-0.261961499517327,-0.0612612552377388,3,29,-20
0.647127715611384,0.140739892891563,0.076383576544024,15,-38,23
0.486816621807487,-0.0377015800114292,0.0567674901597036,12,-20,-20
0.677105137734436,-0.143556014231129,-0.0543241602153758,12,29,-23
0.516815218456056,0.131314359513208,0.0319003792587768,15,-29,26
0.66932381845258,0.194750635353854,0.0551908930411142,-6,-26,8
0.709234437522917,0.112593817626394,-0.0360703516631167,3,38,23
0.71133659701199,0.257034519599762,-0.0434538823497251,9,8,14
0.733537182276986,0.0448073716551451,0.133288075384991,-15,-5,5
0.518823552340638,0.150897710495064,-0.0734487268388208,-15,41,17
0.743827859601263,-0.123806908591162,-0.0898016790050822,12,41,-14
0.642678054051656,0.030893784201846,0.0483271620520174,6,-5,8
0.533444032824377,-0.135864279169741,0.0536339108272943,9,-35,-17
0.737072197240872,-0.176645609977342,0.168883454603141,-0,-41,-44
0.674483835451007,-0.230907263962478,-0.0739125740400339,-12,20,-5
0.688814473636293,0.228142414847453,0.140297688205528,6,-14,32
0.636526439141043,-0.12329813801849,-0.0292833663287526,-0,8,-29
0.505339040409706,0.119528762644172,-0.0377277546398986,-15,5,14
0.60428026399712,0.146544297319803,-0.0341796773430261,15,29,41
0.713949134730679,0.196979949102454,0.0819906567072839,-15,-41,26
0.704160892950525,-0.0274019758451695,-0.0602849141070793,-9,38,-11
0.718760750441314,-0.247289651124551,-0.110670808475653,0,32,-5
0.625278528130545,0.115513471693436,-0.0671085388060747,-0,11,14
0.647648084176884,-0.0344647887548145,0.124902879969415,-12,-14,-17
0.624431119385218,0.207701848947143,0.0553612307380679,9,-32,41
0.507129599938925,-0.109219875946588,0.0227579926089899,-3,-41,-23
0.622239719927777,0.152089927527457,-0.108468982047862,-12,17,8
0.704160892950525,0.234364556144128,0.104725903134134,12,-23,14
0.685138920773886,-0.245606753340307,0.0711184954510863,-12,-38,-20
0.599348136337432,-0.115766162576064,-0.0594258826318391,12,29,-44
0.636526439141043,0.0995718275495478,-0.0275206374747992,3,11,44
0.736044310338935,-0.252662419730784,0.113618669445675,6,-32,-38
0.516194079245673,-0.109853109163268,0.0729807033503413,-9,-29,-29
0.744614729139476,-0.0785975176303852,0.0381744115194595,-15,-5,-26
0.708409799411571,-0.101773795881764,0.101752844219678,6,-41,-38
0.713949134730679,-0.244236782032649,-0.120383729374419,-9,44,-17
0.631661793158173,-0.1878687768293,0.0717358924972016,-6,-20,-35
0.611284050664719,0.180777574767971,0.0315528200598272,15,-32,29
0.56579404597033,0.155546602817501,0.049804271013922,-12,-8,26
0.596671216822894,0.106696787608591,0.0812513094303613,-15,-35,38
0.624431119385218,0.106994848248741,-0.0494325415488283,-3,17,26
0.584696830328428,0.12085637910637,-0.0223200820342879,-15,17,8
0.738948702197688,0.126022278564456,0.119694965072669,6,-23,38
0.52020061241572,0.0667393387400226,-0.0551714808683568,-0,14,29
0.740297490735848,0.186727553453569,0.0262843684096301,0,-14,11
0.704160892950525,0.0894428951374785,-0.045144043834163,6,17,17
0.688223298405179,0.122058518699287,-0.142250134255825,9,8,29
0.634369502577447,0.118482756425141,-0.072423313252229,15,35,35
0.657868427034306,-0.186367338723414,-0.0155752261509143,3,29,-32
0.521102624823897,-0.0751956093355106,0.0334835371326253,-0,-11,-29
0.659642495086486,-0.127633700434612,-0.132872196441693,-3,17,-41
0.702262562768509,0.216529962656629,0.0636199086285993,-0,-8,8
0.468516296598003,-0.106155787378149,0.00549802937750436,3,-11,-5
0.741631310480598,-0.254245420395833,-0.138641981407223,0,29,-26
0.66932381845258,0.0891666211954246,0.105629804779594,6,-14,17
0.638309890883201,0.152648515907101,0.0819027707115125,15,-26,14
0.595325131760778,0.19447875648152,-0.101570350518317,-3,17,29
0.582249717419397,0.0500378972754266,-0.0898863811355875,-15,38,41
0.613603656123059,0.0907899412619003,0.0768898128829573,-3,-23,41
0.496844732641925,-0.0449145411409399,-0.045302237218363,-0,17,-35
0.740297490735848,-0.156912529550761,-0.0989775526619733,6,23,-23
0.472968943236326,-0.0797968407071551,-0.0242046723128992,-0,14,-14
0.646009059654062,0.143097132242456,0.122609663309398,-15,-14,35
0.693397900048322,-0.148885874603322,0.116132999120037,9,-29,-23
0.638309890883201,-0.0964506281112007,0.0305393996711496,-12,-32,-23
0.519602281470874,0.0603271976179747,0.0335266770305312,-3,-38,29
0.710720349750407,0.170064511214766,-0.0736321367602981,-3,32,23
0.652407389697544,-0.188543715318054,-0.0233370436064867,6,11,-17
0.712669812699873,-0.143944906384368,0.0581336941541471,6,-5,-20
0.713949134730679,-0.194643437472414,-0.0662517758519832,-9,5,-20
0.474710217307504,-0.0464829866613707,-0.0372897163308257,9,41,-8
0.603225623062928,0.107365622344798,0.0904236833056672,-3,-20,8
0.69160049461123,0.237033357896993,-0.133247419785469,-12,8,8
0.655576038008071,-0.16390824539365,-0.112429166740678,-12,8,-14
0.723873305662422,-0.216225215899198,-0.0646565847863305,0,11,-20
0.652407389697544,-0.0379591803339258,-0.0548617640194265,12,44,-5
0.62849932653178,0.0885698996480447,-0.103351134072436,-3,14,32
0.69160049461123,-0.246239718201337,0.07748183498453,15,-41,-44
0.688814473636293,-0.222953683080278,-0.0378579030062214,3,38,-26
0.655576038008071,0.163766698695945,-0.0435061817415722,3,20,32
0.464396021462142,0.115519269784935,-0.016212400372274,3,8,44
0.624431119385218,0.191263215429824,0.0549825312210481,12,-20,38
0.643241568364607,0.0522484297024129,0.115347543718804,0,-32,11
0.725615165873349,0.0328939329126133,0.0884994313787289,9,-14,20
0.69746576036053,0.0708333941721882,-0.0935936857111075,6,5,11
0.703393870067743,0.212656123768049,0.105769942327291,9,-35,26
0.642678054051656,0.025488287048745,0.118562977588703,-12,-14,35
0.486816621807487,0.0852634786501664,-0.0491919520323283,-6,11,32
0.661355889321587,0.120509123294004,0.10885183702062,6,-14,23
0.602680874417968,-0.0740370169206828,-0.109704158857345,-12,17,-35
0.64173525768687,0.0524169679238711,-0.0931962635486856,-6,26,35
0.675241092767835,-0.19145811530732,-0.129386722897246,12,38,-11
0.740297490735848,-0.179108849008116,0.113236321286534,-15,-23,-23
0.622239719927777,-0.0173470929213942,-0.085030688897284,9,20,-35
0.721099446122402,-0.16491898203746,-0.145043070314138,-0,20,-38
0.688814473636293,-0.204128662811991,-0.108972917456924,-9,17,-32
0.615943344230583,-0.0750348822749262,-0.0172443812190197,12,26,-23
0.45458769228211,-0.0141504134120099,0.003176616677567,6,-11,-5
0.69160049461123,-0.0516311539670292,-0.099232469725189,-3,29,-8
0.687134470298204,0.0569990253094362,-0.112392707112448,-6,26,23
0.677105137734436,-0.113734808132767,0.0633997194972253,12,-8,-20
0.725615165873349,0.113007139070591,0.0329987700825317,-9,-20,8
0.664201052089968,0.0951361566042248,-0.105791450584944,3,20,23
0.655576038008071,0.0356529498513696,0.059608462989075,12,-14,41
0.62025402330873,0.0804496042283529,-0.0791219669612267,0,35,32
0.737072197240872,0.21482082453944,0.054723136516678,0,-17,11
0.622239719927777,0.14354270659505,-0.0504506771324255,0,5,17
0.608742617703074,-0.146954568006914,0.114735225617499,-3,-38,-32
0.693397900048322,-0.195883893428488,0.0296820642750582,6,-44,-17
0.614849978422224,-0.0950062628907458,0.0565212231283336,-0,-26,-35
0.646009059654062,-0.0789465790865173,-0.0120406757137978,-15,35,-32
0.53994420067406,0.0273704919906912,0.0322680181762586,-15,-17,5
0.63318533395122,0.165632143063287,-0.0760243067414529,12,35,35
0.64173525768687,-0.13215173448664,0.110313336935522,-3,-14,-35
0.678930682158642,0.0653509820465646,0.0268140275023011,-15,-14,44
0.725615165873349,-0.0978347979070131,-0.0674761463125228,-0,35,-44
0.690555382933244,0.205461325196167,-0.086126385255717,15,32,14
0.714506916164607,0.119027498997285,0.132835175168156,-3,-5,14
0.563260037335946,-0.0509247858654682,-0.0627858284611835,-9,8,-17
0.654462345320539,0.0643670336204304,0.0863352691062214,6,-23,26
0.739542886304613,0.0578849509370526,0.168972022130996,3,-17,20
0.609995564641276,0.0218073789354042,-0.0807886844477746,0,29,5
0.712669812699873,-0.0478853826758685,0.0554508973024538,0,-26,-17
0.709234437522917,0.10620078889008,0.133488857586312,-6,-41,23
0.678930682158642,0.121243961062154,0.102122177678658,6,-38,26
0.712669812699873,-0.166812232216418,-0.00515319942146832,15,41,-32
0.66932381845258,0.102935813113836,-0.129801398761558,-0,11,17
0.652407389697544,-0.187916410624098,0.13307383292689,-9,-29,-8
0.661355889321587,0.143719563953907,-0.069489773222685,-6,38,32
0.675241092767835,0.070659002504811,-0.118714738308838,-15,29,32
0.737072197240872,0.190888444826844,0.138232630891232,15,-8,8
0.462459654036697,-0.106305536407612,0.0134420966570244,-3,-23,-23
0.632631690783668,-0.177013448653305,0.0468770218873036,-6,-29,-8
0.744614729139476,-0.0777260369979988,0.162837872194637,-9,-41,-11
0.606253501424821,-0.0467523741280518,0.0814629790384302,0,-23,-14
0.570222793815624,0.108423836700552,0.0270534202427931,-0,-29,29
0.649232143873516,0.088226947536993,-0.020654490896713,-6,32,44
0.621308238854823,-0.070608219366772,-0.0661789425597726,6,29,-23
0.738948702197688,0.231870887313069,0.0548084986684351,-9,-44,8
0.506589332294926,0.0640203741661357,-0.0607198936323949,-12,20,29
0.684153923118679,0.13133580255041,-0.0802676619233185,-3,14,26
0.582249717419397,-0.0633727596647125,-0.101613360931598,-3,8,-5
0.622239719927777,-0.130069112122911,0.0151266276067227,9,-29,-35
0.736044310338935,-0.250198510985816,0.154821618606207,-9,-14,-17
0.561414776134128,-0.168471179482844,-0.0378041838297202,-15,29,-14
0.55459357235105,-0.0390806495423485,-0.0854309323215009,-9,44,-14
0.725615165873349,0.173517304333243,0.152166986320042,6,-32,41
0.547922583518765,0.0951866400171247,0.0832549690700123,-12,-29,38
0.737072197240872,0.0465786183280127,-0.121702842008919,-12,26,17
0.715226020547061,0.229407028568018,-0.117450871765952,0,41,32
0.53994420067406,0.0522770796338811,-0.0740427525565074,-12,44,17
0.562397237920829,-0.145270959783018,-0.0666253797116102,-9,11,-17
0.709234437522917,-0.136113760779971,-0.126066668119489,15,41,-23
0.677105137734436,0.107589851994979,0.0545318041167657,-9,-8,35
0.609995564641276,0.162045435923748,-0.0800229662157377,-0,14,23
0.703393870067743,-0.252738878095792,-0.0279473151950106,-12,17,-5
0.722884555673955,-0.0755121677306604,-0.0235743298990812,9,35,-23
0.655069355550134,0.207389742493403,-0.126527972146974,12,44,26
0.484592327119411,0.0874968089314573,-0.029758991987853,-9,5,41
0.620791090515314,0.171667045849818,-0.103096994929674,6,32,5
0.733537182276986,-0.109855568905808,-0.085081372938316,9,11,-8
0.741631310480598,-0.117142290215997,-0.170277827905733,15,35,-44
0.715226020547061,0.133492009526557,0.0496171818782909,15,-8,17
0.69746576036053,-0.200337465673987,-0.145707404626526,-15,32,-5
0.634369502577447,0.189739723784956,0.105370185582314,-0,-26,32
0.637438873326537,-0.0566524292068048,-0.0174622180232117,0,17,-38
0.682740786788761,-0.205552538876119,-0.0636820980015769,-6,8,-5
0.702262562768509,-0.252487421904813,-0.145750219852327,-15,35,-20
0.608742617703074,-0.202863247762989,-0.088024695799412,-3,20,-20
0.55459357235105,0.0667714313545179,0.00782994221572689,0,-8,35
0.744614729139476,-0.222996785620559,-0.0376299903465106,0,44,-11
0.6759857579206,-0.210232064514253,0.115510134275751,9,-29,-44
0.733537182276986,0.17952848813476,-0.0507756482291078,-0,38,29
0.626001848335747,-0.174515778051315,0.0836946981736839,-0,-11,-5
0.690555382933244,-0.0997413875636446,-0.0233712456713761,-12,29,-32
0.564416132382457,-0.0650236067163388,-0.0146205714459894,-9,14,-38
0.709234437522917,-0.0930512781122169,0.100539777485353,0,-20,-32
0.664201052089968,-0.175078585372703,0.13666963415844,-0,-41,-20
0.530499816551972,0.0500244770462574,-0.0279736203894531,9,14,32
0.6275237714035,-0.137019082381998,-0.0606005846270443,3,20,-35
0.530499816551972,0.0989137863794027,0.077955942682726,-9,-5,29
0.518257525276745,0.12718328415931,0.0461645467062385,-3,-41,14
0.595325131760778,-0.183858723038439,-0.0718814018920304,9,17,-35
0.685138920773886,0.0213807848398722,0.117889737337285,6,-23,32
0.548507091569917,-0.149538514257667,0.0627948809148137,0,-41,-11
0.660187652292729,-0.196202723984167,0.0635670142305265,9,-8,-38
0.722884555673955,0.109957561760126,0.0666281405738602,0,-35,5
0.659642495086486,-0.097412644645396,0.118599535272938,15,-23,-14
0.595325131760778,0.175609398697203,0.00601797288033025,-3,-41,11
0.711912417946001,0.0892264187853582,0.0672656190170925,0,-8,38
0.682740786788761,-0.151573814535359,-0.046489926522739,-6,11,-20
0.580019069797652,0.0732988895102784,-0.0824483413994387,12,23,32
0.693397900048322,0.136311102843601,-0.0259282334352667,9,44,32
0.677105137734436,-0.205531304153472,-0.0801859211548902,15,35,-11
0.638309890883201,0.0256340753935243,0.0675682787337203,0,-41,35
0.688223298405179,-0.111618232453481,0.0576624000693449,15,-38,-20
0.621308238854823,0.0911424667128087,-0.114171938870454,-12,17,20
0.63318533395122,-0.035425426132082,0.0232377808827129,0,-26,-5
0.656777911712277,-0.112968717161092,-0.111192997173475,-0,29,-32
0.730068739496519,-0.210530068856206,-0.130931437813278,-3,35,-41
0.638309890883201,-0.112383706426094,0.0647737432315015,-6,-41,-35
0.647127715611384,0.213237896631981,0.0591259593297204,-0,-17,20
0.743098887624018,0.216978633531255,-0.0832294919244587,-15,14,23
0.56579404597033,-0.110305355153149,-0.065680112503432,-12,8,-5
0.718119160490908,0.252817852004965,-0.0666493676905258,-12,41,20
0.546427950521368,0.0471561131831843,-0.0483999854703428,12,26,26
0.693397900048322,-0.213135614376491,-0.141585387749033,3,35,-20
0.718760750441314,0.138147726112557,-0.0587036920552004,6,41,32
0.674483835451007,0.222989399129471,0.071458614291391,-12,-38,26
0.647127715611384,0.223954298596994,0.0319064641118539,12,-5,38
0.715226020547061,0.196516594453598,-0.131825480466697,-3,17,38
0.702262562768509,-0.211838004776832,0.0613564653409129,12,-14,-32
0.683348085043692,0.156372546959134,0.106381566578433,-6,-11,8
0.521102624823897,-0.10954388895912,-0.0412525630704138,9,38,-5
0.656777911712277,-0.206421477920899,0.0956518383531084,-12,-17,-11
0.737072197240872,0.0772845923966943,-0.0755575005374001,-9,23,26
0.71133659701199,-0.099829505484537,0.124756191881651,-0,-5,-23
0.688814473636293,-0.0888693973904824,-0.115411365041935,-0,17,-32
0.660187652292729,-0.0611938419846802,0.0285816450435379,9,-38,-35
0.718119160490908,0.210607071833594,-0.0802334250535015,-3,11,35
0.477945000808531,-0.0588991066113747,-0.0195807822147682,3,29,-26
0.659642495086486,-0.0886965560661835,-0.106165277278516,15,17,-14
0.703393870067743,-0.107300042728743,-0.109338118092955,-9,8,-11
0.594244347010529,0.029595922026131,-0.0731971958389367,0,41,38
0.703393870067743,0.162866212760421,0.137610468263855,6,-41,11
0.590078225451164,0.0236511326855772,0.0437213453482236,15,-35,5
0.682740786788761,-0.220796475775959,0.129105248126949,-15,-29,-20
0.684153923118679,0.185080807866233,-0.113778943757379,6,5,26
0.739542886304613,-0.123907559904771,0.0833956250568824,-3,-8,-17
0.688223298405179,0.144182961246256,0.118076357668342,-12,-17,38
0.709234437522917,-0.163618620385548,0.109121741020441,12,-23,-41
0.625278528130545,-0.0911064933941678,0.117418984527595,15,-44,-32
0.678930682158642,0.0159942668336081,0.0734627150222377,-15,-8,23
0.678930682158642,-0.164498582381874,-0.121348177127728,0,29,-14
0.657868427034306,0.0850073501485151,0.0827816437802251,3,-5,5
0.62025402330873,0.143566277766323,0.102156012779287,-15,-11,5
0.660187652292729,-0.108540398090327,0.0477939396900999,3,-14,-20
0.467946137276613,-0.0235449276712699,-0.0446130644860971,-6,44,-29
0.482170615180801,-0.0209696067617629,-0.0556547150122517,9,29,-17
0.708409799411571,-0.170721786525303,-0.0872179419836221,12,23,-44
0.63318533395122,0.194535933007849,0.053683492795546,-9,-38,20
0.71133659701199,-0.0849263485466412,0.0625630074389715,12,-29,-41
0.69160049461123,0.250180059054896,-0.0647966699366062,6,38,20
0.486816621807487,-0.0778219697971683,-0.0592579876300155,3,29,-14
0.693397900048322,0.0950115009553479,0.0592290447582411,-12,-44,23
0.578351585634184,-0.065245152755976,0.0526516811220546,3,-5,-38
0.618782365225006,-0.0715793898784568,-0.0647358322163405,-0,8,-26
0.655576038008071,0.136470240839348,-0.0506370429860786,-12,11,29
0.60428026399712,0.0861575376448318,-0.113143839791667,9,26,32
0.581550693945921,0.0207883804513062,-0.0594160959856811,-3,23,32
0.652407389697544,-0.118354345514007,-0.0333457285785269,-9,29,-32
0.594244347010529,0.116781419570257,0.0382778242278193,-15,-26,41
0.564416132382457,-0.060059437872355,0.0602537477333343,-6,-35,-17
0.476602741786825,-0.0392570149928589,-0.0346860025196756,9,20,-20
0.643241568364607,-0.0774980678314767,0.0641974558693057,-6,-29,-29
0.710720349750407,-0.116322000278567,-0.112994756970437,12,8,-11
0.725615165873349,0.205119306283203,0.0442994814013454,6,-11,41
0.684153923118679,-0.174924831787833,-0.0344200311377425,15,29,-35
0.621308238854823,0.109360846709428,0.0531763407761995,9,-17,17
0.561414776134128,0.0990601047926983,-0.0842107217869434,-6,44,8
0.499462690020666,-0.0260651261689413,0.0344404300668766,-15,-26,-23
0.550601981434197,-0.155531934014268,-0.0243880918814942,-9,23,-14
0.725615165873349,0.262800685048432,-0.1276407041066,-12,38,8
0.723873305662422,0.0361841395826922,0.124323464840178,3,-8,11
0.710720349750407,-0.177647234663145,-0.158860081419882,-3,23,-5
0.472968943236326,-0.0625904994204308,0.0462594248944265,-15,-38,-8
0.53994420067406,-0.0825953087196392,0.0440541562064294,-15,-26,-32
0.62849932653178,-0.134904649063273,0.0730288807873718,15,-26,-38
0.683348085043692,0.0639397766511508,0.0282396066617243,-0,-20,11
0.596671216822894,-0.0287091701110102,0.0960887428784729,0,-11,-11
0.677105137734436,0.127158193200053,-0.0228525282556818,-3,23,17
0.599348136337432,-0.0797418320518528,-0.0967905220840454,-0,23,-35
0.516815218456056,0.103158658706172,-0.0415632165753078,15,38,17
0.639055629678,-0.146606833246985,0.121070292708201,0,-20,-5
0.654462345320539,0.0816002150915481,-0.100210552931623,-3,26,38
0.713949134730679,0.0289250547509283,0.110622442120036,6,-29,20
0.688814473636293,0.0902371623630966,0.140331271805383,-3,-29,35
0.655069355550134,-0.165945723124959,-0.0283479080438082,-6,8,-23
0.530499816551972,-0.0846955957973873,0.0612806306323889,6,-17,-38
0.464396021462142,0.0169855921286172,0.011152019536136,-9,-11,5
0.743827859601263,0.0651527264768651,-0.0682639078581792,0,20,23
0.642678054051656,-0.157639782666781,-0.0381717613410959,6,14,-5
0.571098882375466,0.124182191355761,0.0578930221614248,0,-44,20
0.506589332294926,-0.0489466369699638,-0.0406000329277729,0,14,-44
0.738948702197688,0.109215124833356,-0.0391048903080706,-3,14,44
0.482170615180801,-0.0894259670051336,0.0377940744892402,-0,-11,-32
0.649232143873516,-0.205150926462452,-0.0695164708604791,12,14,-44
0.688223298405179,0.081984928844794,-0.14800677209779,3,26,26
0.620791090515314,0.158028740314672,0.0837675195782536,9,-14,11
0.648518221941921,0.213276171479174,0.0804505426973836,0,-41,14
0.721099446122402,0.0652425643675716,-0.133242359574636,-3,32,26
0.69160049461123,-0.0362337909156153,-0.0618155859658055,0,38,-41
0.743098887624018,0.253330348570572,0.0358754989829718,0,-11,35
0.744614729139476,-0.0484550387809829,0.133397245628749,0,-35,-41
0.474710217307504,0.0300070175006514,-0.0131388070698099,-15,35,26
0.741631310480598,0.222182978200698,-0.0405900921231009,0,14,41
0.675241092767835,-0.159689383567104,-0.139036776604534,15,17,-32
0.581550693945921,0.0384672459867383,0.0750280119017507,-9,-8,44
0.738948702197688,0.0659864553850845,-0.0654955531035782,-3,26,32
0.626001848335747,-0.0384852714860431,0.0877571374510992,-0,-23,-17
0.694283940348054,0.130867149557393,0.0850263504591867,3,-26,35
0.693397900048322,-0.191228335875359,-0.0792242490531365,-0,17,-44
0.62849932653178,-0.11957072411042,0.11727418039739,-3,-20,-44
0.713949134730679,0.189716061196628,0.136641390785062,-0,-5,35
0.664201052089968,0.142977883506817,-0.0795438516555389,-0,5,5
0.712669812699873,-0.259180452288801,0.158013448850438,6,-26,-41
0.506039217675911,0.0541995371569729,0.019534107399822,-0,-8,32
0.686459211319818,0.202860650963535,-0.0427770339257799,-12,38,17
0.581550693945921,-0.162525350134773,-0.0765594694487746,-9,17,-11
0.650643633162671,0.0455045821392654,-0.0905829683679083,3,8,20
0.722884555673955,-0.187498009177322,-0.148162172873457,-6,38,-38
0.557397828681118,-0.0742141572422071,-0.0398630382668127,15,14,-41
0.702262562768509,0.133420939430783,-0.147418172941091,-0,20,14
0.631661793158173,0.105261469427828,-0.11047340704354,-0,44,23
0.466363000493632,0.119890796176826,0.0461966550328498,-0,-26,26
0.725615165873349,0.255802414435104,-0.156212832898471,9,41,5
0.686459211319818,-0.0326846463360395,-0.145753206583027,12,32,-20
0.660187652292729,0.0481836398691249,-0.100053775254907,0,38,17
0.649232143873516,0.153312195327559,-0.0129339780191857,-12,35,44
0.543557251596598,0.0883474290123038,-0.0266502201611433,9,44,41
0.547171032406287,-0.146005970070029,-0.0395514266080036,-15,20,-14
0.569448209788949,0.113881287568239,-0.0979406838963083,-15,38,35
0.746931303895814,0.0316053953428694,0.0537076372161061,-9,-20,17
0.56579404597033,-0.0821807517373075,0.0697341297861574,6,-23,-17
0.723873305662422,-0.0694779056782294,-0.145833155583938,-12,8,-29
0.739542886304613,0.277794094476579,0.0752599562780661,-12,-44,44
0.725615165873349,-0.176344519210051,0.157794547957242,9,-26,-17
0.654462345320539,-0.207522644335808,-0.120965195765566,-6,32,-32
