X,Y,Z,R,P,Y
0.542789006962462,-0.0167975968837454,-0.0759180470405623,12,20,-32
0.643423164307525,-0.189045797524498,0.0228585708913887,3,-17,-14
0.743063357209409,0.222229923849988,-0.0173262229715341,-15,29,17
0.572530830837565,0.0654093406327238,0.0515901395208407,-6,-41,41
0.519573859995102,0.0362538983879996,-0.0457017557208199,-12,14,11
0.652725547648867,0.162412495985468,0.101224029813446,0,-35,8
0.625984785747509,0.0877104786319766,0.106070997855287,12,-20,5
0.716215978757297,-0.101071491426466,0.0861876589670013,0,-29,-32
0.618084410806679,-0.135593048464146,-0.119087978299775,-9,35,-41
0.551183522260075,-0.0494548348212731,-0.0838096397865187,-0,8,-26
0.719439947806496,0.198981401699355,-0.0911904125760174,-12,32,41
0.643423164307525,0.141664687559484,0.0902325873850689,6,-35,26
0.509980623812054,0.0630871983747085,0.0489962780453658,-12,-8,11
0.606114638043588,0.0309056885957603,-0.0807114031388586,-15,14,11
0.57776876912789,-0.0676808034795445,-0.0704806082761567,-12,20,-14
0.548282281592981,0.158965826674104,0.0853122270068431,6,-44,11
0.723804611042696,0.221266029328374,-0.0950592286237144,0,41,17
0.738178349224136,0.0937995028482936,-0.055938914597466,3,32,11
0.612030082662313,0.0830587646793008,0.0672190050132098,-6,-11,8
0.664724058119058,0.0913624229772,0.0445012014627617,12,-35,35
0.501389836505712,-0.0663663646726433,-0.0299072249114145,6,20,-14
0.689900628343743,-0.24794323486243,-0.096499131333907,0,44,-41
0.596855875638758,-0.165842444515964,0.0923290888952062,-6,-14,-26
0.603277791515079,-0.124864963255947,-0.0238604546594577,-12,11,-20
0.709763477308285,-0.174657778001792,-0.111577889093929,12,8,-38
0.702790773158349,0.160865954992207,-0.115282324290559,-9,29,26
0.689040516281329,0.10743379373458,0.115666825549416,-3,-41,23
0.707907999779677,0.256402355734058,0.0705522654192413,12,-5,5
0.661807318119899,-0.215075881354907,-0.0509375760196928,0,41,-32
0.746559663195855,-0.0841413114793387,0.0622820865376922,-9,-26,-5
0.719439947806496,-0.0794247980173367,-0.0548744927158593,-3,23,-32
0.675336861832548,-0.162066137584786,-0.0774522072332955,-15,8,-5
0.580154019872437,0.0395824233813969,0.0749889873215768,9,-5,23
0.629639060077003,0.149946688612071,-0.112797780631812,15,32,8
0.492281047788315,0.098820357552724,0.0602823467552789,9,-8,41
0.706114653602694,-0.202796375251868,0.151529595217489,-0,-32,-20
0.65772612624079,-0.140452895657616,-0.0987376193403788,0,38,-29
0.680266245767795,-0.0606962677935366,0.0697428431210764,6,-26,-23
0.649954498659458,-0.20363116085276,0.0436384174407017,-0,-44,-23
0.566033024070401,-0.166968407334675,-0.0877981958018698,12,29,-38
0.599873371437679,0.059234307766305,0.0855600574747895,-9,-29,38
0.656248065356993,0.14145329342211,-0.0378084984791244,-9,5,38
0.666638372156903,0.115416401590727,-0.02105770192123,12,29,32
0.62667179468611,0.200860693956558,0.117036526695066,-0,-29,17
0.516920558480857,-0.0276246183951975,0.0251922799417045,-9,-41,-38
0.711032389597072,-0.124268057284351,-0.123373563808841,-15,8,-32
0.566849679231845,0.144318996442846,-0.0647268821609488,-12,44,14
0.702790773158349,-0.0420197396797411,0.151998903417029,6,-17,-14
0.650826277665282,0.150150500867955,-0.0220282393339227,-0,32,8
0.709763477308285,0.0646721290696459,0.0396289806235591,-15,-35,17
0.50600988543445,0.0485470817407475,-0.0466300642523151,-3,32,29
0.728509540376552,-0.212078187563069,-0.152894765348261,15,17,-35
0.743735576988291,0.0339698684358783,0.0685076691901174,-3,-14,26
0.629639060077003,0.0867722890076292,-0.11716311753297,9,32,11
0.699287306329745,0.109282351762975,0.0844928761840554,3,-29,17
0.673089524965307,0.0497963413815048,0.0933143881889351,3,-32,44
0.653456847577441,0.140979860968401,-0.118106908936483,15,14,41
0.738178349224136,-0.215329301894921,0.119371584925471,9,-5,-8
0.611484660167961,-0.113022497010204,-0.0886110633215255,-15,17,-32
0.680266245767795,0.207819936450087,0.0640287529463062,9,-29,8
0.642396045992502,0.137944169093182,-0.0844374303451507,9,41,26
0.611484660167961,0.131812890937275,0.0694601671831234,-12,-35,11
0.473422168002882,0.107017492818029,-0.0273352533030087,12,29,14
0.602670121140047,0.161774541853844,-0.0611615019152425,6,20,20
0.542014854562196,0.0818029479072859,0.0168441284038626,3,-11,14
0.709763477308285,-0.227107661335392,-0.132480043049864,-3,5,-8
0.536372044848562,0.131565819910932,0.0269518776878905,-9,-26,23
0.625984785747509,0.044646372507238,-0.0700687614519446,3,29,35
0.649954498659458,0.149907641993908,0.0289970715629525,-6,-14,8
0.712791972170726,0.100258105164702,-0.130088725148281,12,14,17
0.500382014035436,0.0650266692358617,-0.0371298209604447,12,35,5
0.552683067811244,-0.0362595702676495,-0.0186583142465095,9,26,-41
0.689900628343743,0.159594699799093,-0.128043010426326,15,35,5
0.538487033964636,-0.109504853175292,0.0572791095289486,6,-17,-32
0.587840357926809,-0.0472027020755422,0.0870850270776676,-12,-26,-35
0.659415329921289,0.149386697530287,-0.133112127097184,-0,23,38
0.574096260341191,0.124797386339797,-0.0872518045322896,6,8,17
0.723096247846817,0.241283395039711,0.0565864431205501,-0,-35,20
0.618084410806679,-0.0209035704546919,-0.106750121383229,0,32,-5
0.718542957548231,0.15714795262073,-0.150174626632322,-6,8,29
0.563240755374078,0.0558234719794363,-0.030506577923959,3,8,32
0.624944006823766,-0.0641421041427739,0.103434291901403,-9,-32,-14
0.624150675934762,-0.121537573290948,-0.0260190305091992,15,8,-17
0.530937503309972,-0.0559168687252483,-0.0575099391361517,12,29,-29
0.672410214980346,0.235917599714647,0.0860003588002412,12,-26,38
0.738178349224136,0.111813288823296,-0.111087262230298,-6,8,11
0.536372044848562,-0.110417052902043,-0.0120659197461457,6,26,-26
0.728509540376552,-0.0686597243580771,-0.109996974351957,-15,14,-35
0.699287306329745,-0.124444983326636,-0.140095122214425,15,26,-26
0.723804611042696,0.133504243739787,-0.10457971360167,-6,17,26
0.740624790129561,0.206485789114549,-0.114837149712354,0,11,11
0.723804611042696,-0.239068609247681,-0.119405764978964,12,35,-14
0.713347693538122,-0.157047690173906,-0.119319358393311,-3,32,-32
0.718542957548231,0.217774360228638,-0.0934940631805614,9,35,44
0.708823894696559,-0.160183880815205,0.126415836997467,-3,-26,-8
0.659415329921289,0.0727579970308872,0.0578201943751947,-6,-29,11
0.719439947806496,0.0543295044612634,-0.0543736633024568,15,29,32
0.599873371437679,0.0900386049739659,-0.0738638953613959,9,11,11
0.64783370626757,0.0503109941478927,-0.123313180799723,15,32,17
0.507848830568363,0.104453321740681,0.0310634571506342,9,-14,41
0.738178349224136,0.221227348717225,0.0648165564018959,6,-23,20
0.61602336383063,0.163198419848996,0.0386826328284861,-12,-32,44
0.701397476460661,-0.198454014892579,-0.14940927836343,15,11,-44
0.550090438439223,0.0877248979721824,-0.060881794117061,-15,20,41
0.656248065356993,0.214472461753345,-0.0580741224414692,3,8,26
0.674399386827979,-0.103871379752931,0.132128130073173,0,-38,-23
0.566033024070401,0.070511671064614,-0.0248115529841166,-9,5,20
0.51640241257667,-0.0749597308940426,-0.0635487604357195,-12,5,-23
0.627837968022403,-0.143396551881449,0.10446276783942,6,-20,-44
0.511810913134211,-0.137933519845669,0.0690215318110192,-12,-23,-38
0.716215978757297,0.250758901043592,0.0396797593020736,-0,-17,20
0.735900864570412,-0.100731106478094,-0.0349396593418932,-12,38,-23
0.735158857364921,-0.0777259359908544,-0.0725908680420696,-9,11,-14
0.673089524965307,-0.105324798380183,-0.0395768750251,15,38,-38
0.548282281592981,0.107689349015573,0.0666630156364408,-9,-29,35
0.644794439806102,-0.0878595537807282,-0.022249542630307,-15,44,-44
0.549552328003512,-0.0994952140619273,-0.0190324559772177,12,32,-5
0.627837968022403,-0.14485018893287,-0.0713578801841609,12,23,-5
0.723096247846817,-0.166466468789251,0.0701732694455022,-6,-8,-35
0.708823894696559,-0.051766214138246,-0.046897173224902,0,11,-5
0.530937503309972,0.0714794094631181,0.017142592487352,15,-32,44
0.726882445419532,-0.128189337980756,-0.165483365773516,3,8,-35
0.707907999779677,-0.0359721038001869,-0.0394986315092943,-3,8,-5
0.454266788516625,-0.093249720935213,0.010478371656581,-12,-41,-44
0.606114638043588,-0.160458713030183,0.11097376174274,-3,-5,-41
0.708823894696559,0.252589702678829,-0.00855476622673687,-0,38,14
0.684445936932266,-0.208741481560479,0.0787749029708044,-3,-29,-8
0.519573859995102,-0.0823351291776025,-0.0735132815432441,0,32,-35
0.746559663195855,0.126451661980738,-0.0636255717296155,9,29,5
0.538487033964636,0.120120216952308,-0.0467952594013777,-9,5,14
0.672410214980346,0.05583112534515,0.0436930094917711,-9,-8,11
0.492281047788315,-0.0580494920742441,-0.0572500056021745,-6,44,-20
0.567864138446964,-0.108589103219829,0.043767389547641,0,-41,-44
0.738178349224136,0.147783850823237,-0.048054451414498,9,20,5
0.669663402928656,-0.0952432330153386,-0.00946467977845722,15,5,-35
0.748657659369411,0.15601526517983,-0.0375720008798246,-3,29,41
0.576067837879847,0.151360551913727,-0.0191329810532575,-0,11,17
0.632608992971533,-0.0301388937645221,0.0285285434662855,3,-44,-44
0.549552328003512,-0.120053673134206,-0.0824889915938233,-9,14,-20
0.57776876912789,-0.116025002153555,0.0328224243633295,-12,-44,-44
0.481722389087288,0.0427330954126533,-0.0460543053952195,12,23,35
0.512394331849707,-0.142810730970651,0.0418991733681416,-12,-23,-26
0.576067837879847,-0.0885805766573911,0.0720299763501493,12,-29,-23
0.743735576988291,0.144147617507972,0.0221989682808662,-15,-14,14
0.479543928182746,-0.113024039539616,0.0240685419593341,9,-5,-29
0.556625914476522,-0.0498189478105936,0.0369338333332768,-15,-26,-17
0.689040516281329,-0.214865320786662,0.0808630469721923,-15,-26,-11
0.717578076399119,0.265782239260827,-0.127228297162728,3,8,8
0.495198096432341,0.0172469370395337,-0.0309719824669044,15,35,32
0.665947387401095,-0.168276465763454,-0.0965628173687954,6,38,-17
0.69243140248654,-0.143685880520151,-0.128993120914137,12,20,-38
0.511810913134211,-0.0371433724753527,0.0370869419576475,3,-38,-11
0.740624790129561,-0.184645002159647,0.0594512291936416,-6,-17,-11
0.661288604349802,0.188075902372411,-0.132625994428585,12,8,41
0.586945666856431,-0.146804567106537,0.0755917059729343,0,-32,-23
0.748657659369411,0.110317023446472,0.174513806901393,-0,-14,23
0.566033024070401,0.107555453064626,-0.0849024039771367,-9,8,14
0.556625914476522,0.157685574090498,0.0731145715333516,3,-44,26
0.563240755374078,-0.0513469957909576,0.0298477983518815,0,-26,-41
0.465935828838695,-0.0798750063094202,-0.0239447248396364,0,32,-41
0.579531803462356,-0.0716715844527576,0.100377401326418,9,-44,-35
0.664724058119058,0.178311443598562,0.12301267435478,15,-20,35
0.662554277078225,-0.133627831121363,0.0664937431124757,12,-38,-41
0.649954498659458,-0.153790101109804,0.0876120548479804,-9,-5,-41
0.555292381883701,-0.0344517746342648,0.0152649343806941,-6,-35,-44
0.716215978757297,0.205868544897183,-0.115370673040014,0,20,32
0.714105348826289,-0.21569004148846,0.0676197074911708,-0,-20,-17
0.723096247846817,0.0465844709873853,-0.0788397840376515,0,23,14
0.665947387401095,-0.200429105942241,-0.0505705294455643,-15,23,-11
0.726882445419532,-0.120896749585568,0.0894163994712365,-9,-41,-8
0.713347693538122,-0.0583619661067501,0.0837117365213746,15,-20,-32
0.466786810109914,-0.0808407415810367,0.041391466445348,9,-32,-38
0.562626351732833,0.0215886921349609,-0.0294120697449002,-6,44,5
0.64783370626757,-0.136822777189231,-0.0313562219820858,3,26,-26
0.67625835547547,0.0504724474800648,-0.0970319355456409,15,38,17
0.719439947806496,0.127441475269264,-0.0619685683948013,9,26,26
0.621915826819687,-0.126420677792175,-0.0756874594572607,-9,35,-8
0.675336861832548,-0.136726662051523,-0.122261283808639,-3,32,-23
0.501389836505712,0.0812004715107915,0.0150015400095557,6,-20,29
0.708823894696559,0.155883028525938,0.122483101473784,-6,-35,20
0.566849679231845,-0.158375371690299,0.0268476362299162,-0,-5,-32
0.748657659369411,0.225966660130977,0.143297759201027,-9,-14,23
0.672410214980346,0.0627776075644799,0.12080764089885,-6,-29,41
0.546154905725218,-0.0625767326332771,0.0240690490688639,-6,-29,-35
0.743063357209409,0.252540480777664,-0.14979289587127,0,14,38
0.684445936932266,-0.146285626834193,0.065150171372806,15,-14,-8
0.723096247846817,0.265326676793888,0.11206660678974,-15,-38,23
0.63953482637913,-0.108301131474815,-0.0362064484166509,-6,5,-5
0.700300811843,0.0483008312904038,0.11786737788425,12,-17,41
0.740624790129561,-0.239940720738666,0.146898005369709,-9,-26,-44
0.684445936932266,0.206967361375062,-0.070565156070554,12,38,26
0.694982864105232,0.195137808634343,0.101494734802022,15,-29,5
0.735158857364921,0.273851208854287,0.113483023131398,0,-14,14
0.652725547648867,0.110028305102221,0.0563717702071724,-12,-8,23
0.616647660200371,-0.106854674712955,-0.0115470365181603,0,35,-23
0.673089524965307,-0.222606134759961,-0.141364217076998,6,11,-29
0.708823894696559,0.170598341135492,-0.128946869395657,-9,14,38
0.630276836859182,-0.0453262792443453,-0.10843653400097,6,26,-5
0.562626351732833,0.160159945867746,0.0252210425822565,3,-17,20
0.580154019872437,-0.0976226000680463,-0.0423666578502241,3,38,-23
0.683325682459143,0.245656650908118,0.117915720088686,-6,-32,23
0.735900864570412,-0.0848992804395905,0.135355676272151,15,-44,-20
0.67625835547547,0.0920797524516821,0.103828173395082,0,-32,17
0.648901888800646,-0.225869007643775,-0.0435511437698651,-3,41,-41
0.612883184642708,0.0745668940095459,0.0881910007326153,-0,-20,26
0.555292381883701,0.156495296117636,0.0869188299414381,-0,-5,29
0.519573859995102,-0.0880212258091262,-0.0437397885731344,15,23,-23
0.669663402928656,-0.139342629523995,0.102802932038944,-12,-41,-5
0.565508517210327,0.0269941351122201,-0.0443723518700735,-9,20,14
0.612030082662313,0.146800897160009,-0.0434742052010596,-6,20,11
0.706114653602694,0.187030094836603,0.156402238907131,-0,-26,38
0.612883184642708,-0.181217240890114,0.0262559445098163,-12,-32,-26
0.743063357209409,0.173645496887904,-0.09926628168239,-12,29,20
0.469473151209681,0.0736055311023678,-0.00655807177023693,-9,32,23
0.591017318499013,0.123523358915412,0.0686088633804447,-6,-32,29
0.744249811023135,-0.0941098429086254,-0.0106888877708273,9,44,-26
0.707907999779677,0.0490775329703683,-0.0609194171294375,-15,17,29
0.666638372156903,0.17589837943622,0.044208840287449,15,-32,38
0.699287306329745,-0.174959690189087,0.145820776560053,0,-17,-14
0.689040516281329,0.185251194899434,-0.0505042599518851,-9,41,17
0.726882445419532,-0.112940327397654,-0.154453693131855,0,26,-17
0.740624790129561,-0.0572283593535785,-0.132189115949813,12,41,-32
0.656248065356993,0.223444802447856,0.0711019590149501,6,-29,20
0.637039568163987,-0.175663358952413,0.0532529255325152,3,-35,-11
0.662554277078225,0.189373361062843,0.0680605926727077,-12,-23,20
0.476110307141657,-0.0152438276323466,0.05400143851654,0,-29,-41
0.726882445419532,0.26841657707294,-0.0822116396882682,-0,11,14
0.515818366446608,0.043400281202676,-0.0321904650865888,-15,14,26
0.711032389597072,0.199040985138115,-0.0741868402974021,3,17,35
0.702790773158349,0.247170068304965,0.153328529991233,-12,-23,8
0.719439947806496,-0.16211225079981,-0.0969697309002926,-0,23,-8
0.663584706498805,0.226189116844245,0.0284264225000326,3,-32,26
0.736406772493522,-0.248887613071374,0.0948518601290088,-3,-29,-5
0.674399386827979,-0.0955471436276365,-0.115290257073717,-9,11,-38
0.473422168002882,-0.05513945566428,0.0482428441405765,12,-32,-38
0.744249811023135,0.215363912824025,-0.0162677080086821,-3,11,26
0.661807318119899,-0.113531709889575,-0.0457040226010677,-9,11,-29
0.694982864105232,0.181966137356325,-0.134803203526802,-15,29,23
0.577169963492989,-0.0903136306322301,-0.034395088680765,-15,35,-8
0.500382014035436,0.121312858811272,-0.0365463068856252,-9,17,26
0.736406772493522,-0.186148602450593,0.0534977022390015,9,-8,-5
0.632608992971533,-0.129373015413731,-0.0905293180735582,-9,38,-14
0.652725547648867,0.206427677957087,0.119155992166102,-3,-23,35
0.549552328003512,0.167523224853085,0.0322036826147602,12,-35,41
0.625458886844424,-0.0847553641528153,-0.0730523051058324,3,32,-41
0.537652274473838,0.0943381684120833,0.0247626201811767,-15,-29,26
0.694982864105232,-0.171108751175421,0.1278458729795,6,-38,-5
0.746559663195855,0.105890197532067,-0.0944153628170071,-9,26,35
0.663584706498805,-0.101751865890379,0.128474857360461,-0,-5,-44
0.649954498659458,-0.202703949326959,-0.0951410569523009,0,32,-26
0.630276836859182,0.120294891291873,-0.120542341331913,-0,8,17
0.669663402928656,-0.215061330015709,0.10193235602388,-12,-44,-8
0.689900628343743,0.101083140897135,-0.100637451241698,-9,41,29
0.621405745701692,0.128935687161066,0.0293337659277779,-15,-17,17
0.706114653602694,-0.190133642247099,-0.0745997577350818,-15,14,-5
0.661807318119899,0.0563218936605173,0.0805775777419805,15,-17,26
0.61602336383063,0.0452390440067109,0.110008050401233,-3,-29,23
0.564662057955799,-0.142690617220968,-0.0489056300878337,12,44,-20
0.662554277078225,0.131501936320929,-0.0879964671145039,-3,26,17
0.650826277665282,-0.222123943780196,0.127063401776797,9,-11,-23
0.744249811023135,-0.163671850220098,0.150249267774793,-3,-11,-44
0.644794439806102,-0.184731737924762,-0.026492690967654,0,8,-23
0.51640241257667,0.0910775911864945,0.0201886809807565,15,-14,29
0.69243140248654,-0.182376170934746,0.0851066430239174,12,-23,-32
0.63953482637913,-0.210329490046871,-0.0442306625656474,0,41,-38
0.723096247846817,0.191765630397743,-0.150113034236239,-3,20,44
0.668801066725034,-0.0537866598204833,-0.057021120743244,0,44,-20
0.735900864570412,0.166188276001684,0.098951570202105,0,-29,11
0.740624790129561,-0.193447028158558,0.140849831911963,-9,-41,-35
0.746559663195855,-0.0497875287222988,0.148650260749318,3,-14,-32
0.612030082662313,0.0897977534263037,0.0995063825604873,3,-17,11
0.48092436819907,0.0852641798314091,-0.0333512635057462,0,32,32
0.625458886844424,-0.0616601264360904,0.0117896751418754,6,-17,-35
0.493961113391186,0.120462973377393,0.0367727992182186,-15,-32,14
0.579531803462356,0.0983763520148059,-0.03206265940473,-6,41,23
0.652725547648867,0.128464944902426,0.0217703029235628,6,-44,14
0.616647660200371,-0.0940796346833067,-0.116691495086458,9,14,-29
0.525875311509487,0.0602060941959783,-0.0206071549452174,-6,35,32
0.650826277665282,-0.122150750229715,0.0431114211052395,6,-14,-29
0.689900628343743,-0.0153103490390746,0.140738992192646,-3,-17,-29
0.585679563720981,0.165613404465915,-0.0419442884336892,0,32,38
0.686433706991907,-0.0992927269636346,0.0248617096459945,3,-38,-38
0.669663402928656,0.219068534627819,0.0516359957698158,-15,-5,29
0.735900864570412,-0.191430633403367,-0.159598122613218,0,5,-41
0.548282281592981,-0.058871813885898,0.0284723116667412,3,-23,-26
0.743063357209409,-0.137020381779312,0.0620970143967227,15,-11,-29
0.61602336383063,-0.161668436711114,0.114291383883877,0,-23,-35
0.534199681918612,-0.142282679005882,0.0161385359068864,12,-17,-17
0.699287306329745,-0.238676164979457,0.10865076860972,-3,-5,-44
0.621915826819687,0.186638421640995,0.11724525283664,-3,-35,20
0.659951899660176,0.207608510454404,-0.114591238482346,15,44,38
0.596348635499292,0.131092656979944,-0.0395128237407037,-15,41,38
0.743063357209409,0.0626342339966773,0.0315172125000502,-3,-11,29
0.706114653602694,-0.0819200574254284,-0.0544770126172276,15,23,-44
0.571114202261687,0.040800494280673,-0.0643682007190554,-3,44,32
0.51640241257667,-0.113096949407429,-0.0324419647686407,-0,8,-35
0.525875311509487,-0.150508741304004,0.0225291472617015,-15,-5,-23
0.537080919293985,-0.0193969174988772,-0.0593329394557689,9,20,-17
0.653456847577441,0.0164266249214598,-0.107452967664958,6,23,44
0.669663402928656,0.104530179184675,-0.069925686074744,-3,35,23
0.599873371437679,-0.0754191651938192,-0.0836938880869978,-9,29,-23
0.661807318119899,0.11658381699319,0.111304215475871,9,-26,29
0.65772612624079,0.033555061866458,-0.115449423366845,9,32,17
0.673089524965307,0.0411480161394722,0.0714937956312089,12,-8,20
0.668801066725034,0.143901820716425,0.118512756803986,0,-41,23
0.674399386827979,0.185614124122952,-0.134881152518917,-3,23,11
0.745977290775335,-0.0753292514597679,-0.149055578848893,12,29,-26
0.714105348826289,0.146207622689871,-0.143436884820498,-6,8,20
0.740624790129561,-0.059155958407689,0.13447373080879,-0,-35,-44
0.45000517101953,-0.0827937001955351,0.0422678554782808,-6,-11,-41
0.707907999779677,0.127435462974551,0.0736231872229309,12,-41,14
0.625458886844424,-0.151437437475083,-0.11761180936607,3,8,-20
0.680266245767795,-0.157533292518178,0.104514265556257,9,-11,-8
0.606114638043588,-0.156758799470779,-0.0919158690979872,-12,17,-32
0.719439947806496,-0.1826680456169,-0.0312389648236331,-3,5,-14
0.631274383192636,-0.0993044352322731,-0.107937184813658,-9,41,-14
0.735158857364921,-0.258160157306653,0.150028289274884,3,-26,-11
0.485267867705714,0.081716564119829,-0.0492841538346755,-6,11,26
0.666638372156903,-0.162806103410289,-0.0530711968343974,9,8,-35
0.542789006962462,-0.0621229147338237,0.0281688394108581,-9,-26,-38
0.745977290775335,-0.0536309550553525,-0.114685724828723,-12,11,-14
0.599873371437679,0.118395380299265,0.0528247404232508,-6,-5,29
0.624150675934762,-0.189939510968176,-0.108761517251129,0,44,-5
0.631274383192636,0.126942910238775,-0.0651533718410339,12,8,17
0.630276836859182,-0.103784158798829,0.0877116908961929,-15,-26,-35
0.743735576988291,0.268668149052451,0.141048558817855,12,-41,41
0.711032389597072,0.153177331909992,0.0567805277496476,-15,-8,14
0.511810913134211,-0.0407444841233853,0.0561916344738607,-12,-32,-20
0.694982864105232,-0.146264083436108,0.0339500094386619,-15,-35,-29
0.714105348826289,-0.13020910715452,-0.0120086230913567,-15,41,-14
0.728509540376552,0.228266892484368,-0.162569422222145,-12,11,41
0.599873371437679,0.157243259147472,0.0288319387903293,0,-8,8
0.643423164307525,-0.0997502669547561,-0.125241110755334,-15,41,-5
0.701397476460661,-0.253360902677305,0.0605520572655309,9,-17,-20
0.709763477308285,-0.0904299106241645,0.14656940624251,15,-8,-44
0.64783370626757,0.0695935460471395,-0.0542860076473021,-0,8,29
0.612883184642708,0.0211639833229007,-0.0715958181473491,-3,14,23
0.675336861832548,0.170712072824331,0.0547669744260562,15,-38,5
0.738178349224136,-0.223135018658501,0.0590331588573036,6,-11,-17
0.611484660167961,0.00666665253957659,-0.0794152647197719,-12,38,8
0.642396045992502,0.111375110491705,0.0751005739053922,-12,-32,8
0.627837968022403,0.157865404855966,0.0616059226492599,9,-41,32
0.65772612624079,0.145737787584064,0.0254800246342717,-12,-11,32
0.723096247846817,0.152610852493758,-0.134175152759768,-6,14,14
0.656248065356993,-0.149606450883384,0.0471884110957557,-12,-38,-17
0.68080712093332,0.228317175639743,-0.0469685525942241,3,38,14
0.689900628343743,-0.247366953446067,-0.105893743747526,0,35,-38
0.64783370626757,-0.201598297274361,0.048324796174299,0,-26,-8
0.743735576988291,0.185810261455046,0.126406358053701,-9,-11,41
0.507026652839884,-0.0762412229787054,-0.0159957853376746,3,8,-38
0.689900628343743,-0.243600666411893,0.0295390208475393,9,-38,-38
0.743063357209409,-0.0927781411772799,0.17228843712927,0,-11,-26
0.624150675934762,-0.14335473950907,0.0773206366827555,-0,-35,-35
0.661288604349802,-0.216323366047449,0.038918827932178,-3,-26,-41
0.653456847577441,0.0353753993083056,-0.0665164650248099,15,41,17
0.69243140248654,0.17525269365182,-0.13009003503592,-3,20,11
0.607092412874432,-0.11368672429684,0.090947052947859,6,-38,-32
0.737138451433397,-0.0530472084254292,-0.0343165698486806,-6,32,-44
0.723096247846817,0.220288826194256,0.0726075276607808,6,-41,14
0.723096247846817,0.258501642408485,0.0579588698587074,12,-44,11
0.598405172658219,-0.07932949004074,0.0585063459275919,-0,-38,-41
0.683325682459143,0.132478424315502,0.0249919823983266,12,-26,11
0.63953482637913,0.144016627023861,0.0942867870489462,-0,-23,44
0.726882445419532,0.241938736214015,0.0911231613644657,-15,-23,14
0.602670121140047,-0.152538585512328,0.103727020097243,9,-23,-38
0.612883184642708,-0.185213533173237,-0.0873945779239387,-15,11,-11
0.714105348826289,-0.0872774395292437,-0.065853944363647,-9,41,-11
0.621405745701692,0.05926164551748,-0.10914506517542,12,41,38
0.614027374278886,-0.121126048562604,-0.037058726696603,-12,41,-29
0.598405172658219,-0.0257367253188967,-0.0248663861042037,0,41,-29
0.627837968022403,0.175882539066317,-0.0980966416683727,12,5,11
0.743063357209409,0.276125220318865,0.162439302577982,-0,-35,32
0.713347693538122,-0.252232417739337,-0.0426210926331009,-9,17,-32
0.62667179468611,-0.0848779659572104,0.0501841429469901,-3,-5,-5
0.547345279218018,0.110709141399483,-0.0819726366776501,-15,29,14
0.717578076399119,0.169621337862197,-0.0185405092033657,-9,35,35
0.495198096432341,-0.100527524976706,-0.0453960739229249,6,41,-8
0.726882445419532,0.214392801390288,0.149227135490679,0,-29,23
0.699287306329745,0.161492956730347,-0.0701242199598822,-15,35,44
0.585679563720981,0.136722081497068,0.0390547334314429,0,-38,11
0.687422054680437,0.230375641000598,-0.0948686431283822,-6,29,8
0.637039568163987,0.112402389320516,0.121723032577647,-3,-35,41
0.707907999779677,-0.210296705184226,-0.0972171603796034,3,44,-23
0.668801066725034,-0.092453424836074,0.0607433358894685,3,-44,-5
0.461329723408278,-0.0734943567356108,0.020662238312836,-3,-14,-20
0.596348635499292,-0.0270962205402266,0.0498373515002275,6,-11,-11
0.625984785747509,-0.0320623796208538,0.00873475466138458,6,-14,-20
0.718542957548231,0.158499302264233,-0.0850588887334176,15,26,20
0.624944006823766,0.104241520794742,0.0644916471627784,-9,-17,41
0.686433706991907,0.123920790155502,-0.0802285162800076,-9,14,8
0.674399386827979,-0.0801433331817356,-0.0581519783029269,-0,20,-35
0.624150675934762,-0.0725433620474823,0.0362375400564402,-9,-32,-35
0.609806091095918,-0.0821500459518131,0.0788611707111576,0,-11,-35
0.740624790129561,0.114904104093652,-0.135265168480653,9,8,26
0.735900864570412,0.0412954788008501,-0.0099221626898207,9,44,38
0.712791972170726,0.221832343035607,0.120490629208971,6,-38,44
0.748657659369411,-0.0375641703815208,-0.0315981453780128,15,38,-41
0.675336861832548,-0.0845944730903392,0.0164211183499291,-12,-14,-32
0.738178349224136,0.262918160972119,-0.0494354836399133,-15,17,44
0.707907999779677,0.101787008788498,0.135313143742439,-12,-14,41
0.69243140248654,-0.159104213922309,-0.0649535809487232,-6,32,-17
0.597888224674119,0.0714779423561787,-0.0278141556542723,12,5,29
0.621405745701692,0.118330639892412,0.0441720926556791,0,-35,26
0.489975167375545,0.103291502868912,0.0554985263679303,-6,-26,14
0.637039568163987,0.0590750422625922,-0.0717850813949007,-6,44,29
0.519573859995102,-0.0384297565344053,-0.0389383057320688,-6,5,-14
0.575387600891795,0.123400590200154,-0.0625627652661668,6,11,32
0.707907999779677,0.118437063348197,-0.0509302899041581,3,41,26
0.522668121240704,0.0892043432545472,-0.0250817306356825,3,17,38
0.644794439806102,0.178284660567332,-0.0774888321169257,6,14,32
0.599873371437679,-0.119678728181096,0.0286799489638934,-15,-38,-11
0.611484660167961,0.165045428610016,0.111960226517722,-15,-23,32
0.637039568163987,-0.109187516831572,0.122515090231632,-15,-5,-38
0.625458886844424,-0.0278575812310259,0.0449372623231287,12,-17,-20
0.659951899660176,0.14357226166307,-0.0897954745898492,-15,5,11
0.686433706991907,-0.241484982872241,0.0778027472445619,15,-5,-8
0.629639060077003,-0.134831269554959,-0.0171820560078473,-0,29,-29
0.644794439806102,-0.193524980668597,-0.130543311103562,15,26,-14
0.603277791515079,-0.0451618002890444,-0.0763143385267108,3,14,-5
0.661288604349802,-0.171375848581858,0.13423480099967,6,-8,-32
0.67625835547547,-0.228598225502161,-0.0960995025223873,9,20,-26
0.723096247846817,-0.192806436244205,0.0999593026345883,-3,-44,-29
0.68080712093332,-0.0450293488762471,-0.0512070107221149,-15,41,-20
0.748657659369411,0.261027557026724,-0.114069829946462,9,38,8
0.736406772493522,-0.176054064888585,-0.0921667836996095,12,41,-20
0.542014854562196,0.113805322182733,-0.0400720752464306,-12,14,23
0.745977290775335,-0.11933654680694,-0.155023282232617,0,14,-35
0.652154825507041,0.122636431755599,-0.044123098185225,3,23,41
0.717578076399119,0.0241601611602334,-0.108617888139605,9,20,41
0.615093241497666,0.0768922630523581,0.0316076839412608,0,-5,38
0.737138451433397,0.186380071589783,0.0412733829653635,3,-35,35
0.674399386827979,0.101760032399406,-0.0516578986326848,-3,14,8
0.64783370626757,0.0451993345941123,-0.131554204505348,3,41,38
0.675336861832548,0.167896785806359,0.0746290282739543,12,-35,32
0.48653096767376,-0.098873522559732,0.0181203615993351,3,-41,-11
0.701397476460661,-0.245207031952221,-0.0346002500350699,9,8,-20
0.48092436819907,0.0714717846768064,0.0149109031671127,12,-38,35
0.632608992971533,-0.203495104974966,-0.113945301499576,-9,5,-35
0.726882445419532,-0.105011853486553,0.144703203996314,-15,-20,-8
0.680266245767795,0.208562618882191,-0.132050454368015,-12,35,44
0.63953482637913,-0.217361990226613,-0.10506456046461,9,44,-8
0.689040516281329,-0.216845623287557,-0.102797582838101,-6,5,-38
0.563240755374078,-0.0732282024440166,-0.0488024700104995,-0,35,-5
0.50600988543445,0.121264195111558,0.0365999503115237,-12,-26,23
0.597888224674119,-0.0458370108084909,-0.0811778455893607,9,23,-26
0.708823894696559,0.215326325177016,0.0957048531142933,6,-5,26
0.562626351732833,-0.08412111312793,-0.0676794650669262,0,41,-5
0.672410214980346,0.0992516009435166,-0.0415979500746114,15,20,23
0.67625835547547,-0.154418421007885,-0.0783775724803737,-3,5,-35
0.711032389597072,-0.242433135310743,-0.0286277827011407,-12,11,-38
