X,Y,Z,R,P,Y
0.668965326316286,0.169543298974453,-0.128404970663389,-3,20,32
0.631900786382371,0.153278997248498,0.0970239330322355,6,-44,41
0.734933817852194,-0.170080849757989,-0.0513497406294611,3,14,-17
0.716550815756936,0.0613447792394629,0.0676795296850585,-0,-38,20
0.726595338738278,0.23897572250956,0.0334582533704939,9,-17,38
0.707379900448042,-0.165415047618066,0.100568341928324,3,-38,-11
0.583715290619651,-0.178235168723652,-0.064469172614308,15,11,-8
0.724546376990618,0.248160197284965,0.0875649344000598,-9,-38,11
0.494359447632217,-0.0827535502630821,-0.0397157169820959,12,32,-20
0.718933275971715,0.136977875172275,0.0855140461996786,-12,-11,8
0.714140105012202,-0.048310367994809,0.0809754023062194,6,-44,-38
0.739951312446872,-0.0456322346580696,-0.153892225212936,-3,35,-41
0.647661608259251,0.0750504607394993,-0.0438938979235347,-6,44,32
0.488694203377543,0.0280805932847488,-0.0594848488380979,9,29,35
0.639407158684301,-0.104215496782677,0.121027766290273,-15,-23,-23
0.614871067776544,-0.162754819285958,-0.0512253247706431,-0,44,-5
0.670458568156853,0.113676499141108,0.134287595512064,-0,-17,38
0.740497369086256,-0.253612485332596,-0.150749074241961,-3,5,-29
0.707379900448042,-0.213818306915837,0.0748185294939386,15,-32,-20
0.700280207432435,0.0713418807843427,0.0498524997507102,-0,-38,32
0.572889494369402,-0.169268380179909,0.0807695854176019,-6,-35,-11
0.726595338738278,-0.142117560646467,-0.0426998577128321,-9,5,-20
0.670458568156853,0.231063208048254,0.101590112582331,9,-44,17
0.688267604357809,0.237162700682662,-0.071919144205479,-12,26,41
0.617135606366725,0.162760309496762,0.100297191215387,-3,-5,8
0.614871067776544,0.0973938102451101,-0.0843290303396872,15,29,32
0.652402964028267,0.206537440567161,-0.131817806556383,12,5,5
0.61128256743532,0.134765826510208,0.0957751203445942,-6,-35,41
0.641738353377187,0.0217930392946459,-0.031612697077605,15,32,32
0.605583048204814,-0.144000001763986,0.046476784677711,9,-44,-14
0.73106787901648,0.164952206413699,-0.0793929608512297,0,20,44
0.521496413319101,0.0997487032291738,-0.0139197535463242,12,8,17
0.517427984648152,-0.055110684892683,0.0562282984838035,12,-41,-20
0.738340585719072,0.100959060935707,-0.0418677282626159,-9,44,41
0.651834555228808,-0.2254400055356,0.112045449144602,15,-35,-38
0.676757642143365,0.0992028547760458,-0.0143872313493826,15,38,11
0.724546376990618,-0.187464584952518,0.157633627364582,9,-44,-8
0.674631338036728,-0.176745320369557,0.0439709899013644,-12,-35,-38
0.746067743079754,-0.191573833955249,-0.152743492438503,6,26,-41
0.69558788170852,0.240662116277813,0.133920143353413,-9,-26,17
0.628716637264818,-0.0960962944399168,-0.079830727455057,-0,32,-44
0.688920414908919,0.211134186042783,0.0387030931124475,-15,-38,26
0.735515715048859,-0.11938539413194,-0.110104488609638,6,8,-44
0.748644103793386,-0.261200744862464,-0.166995074531513,6,29,-8
0.559164336835833,-0.0923946317438722,-0.0562739379415339,0,8,-8
0.724546376990618,-0.150001247262677,-0.160163064038838,-12,41,-38
0.706657440549292,0.206349617919792,0.0608302418866925,-0,-8,5
0.706657440549292,0.108369309569129,0.0562774518259478,6,-32,35
0.686973224967922,-0.0627446454660417,0.054139938684943,-6,-17,-38
0.733168015168723,0.107588792567328,-0.0486869941001527,-12,38,14
0.746713976605093,-0.151574051827636,0.110125799177093,-12,-5,-29
0.56574435382622,-0.0186049402960957,0.0459843366315154,3,-44,-29
0.593006128604263,0.157590699576786,-0.0533355470745311,15,29,26
0.639407158684301,-0.090206604554544,-0.0288082053133244,9,32,-11
0.704745516434769,-0.17113185629192,0.0358226232295807,-15,-11,-44
0.71330576285449,0.137110401099429,0.0909026093212373,-6,-35,38
0.746067743079754,-0.236646085582931,-0.0605919725649486,3,26,-38
0.63740069815825,-0.104768807871456,0.102464477520537,0,-35,-44
0.71330576285449,-0.105806178029063,-0.143874654906675,9,26,-26
0.617662363883212,-0.100903659450341,0.101432432871989,-0,-32,-20
0.636678037369759,-0.199247742892574,0.0507748279583564,9,-14,-8
0.578591368482334,0.106208795642729,-0.0634278008519439,0,23,35
0.605583048204814,-0.0893736218239934,-0.093834551237112,-15,35,-20
0.452347463128562,-0.107308899419897,-0.0133786520137741,-0,11,-11
0.651834555228808,-0.0764414453382504,0.0957289339626033,6,-17,-5
0.736408451774532,0.249934904807601,-0.0978245187087314,3,41,38
0.736408451774532,-0.22959715019678,-0.0682022257657065,15,20,-35
0.576468005809371,-0.0372643623635281,0.0868488398037773,9,-29,-38
0.659853620684598,-0.13954647708763,-0.0991609606324367,0,26,-8
0.703534127708271,0.200457604409266,0.123221645691528,-0,-14,20
0.687558735552775,-0.0982076727250159,0.0941287019681779,0,-35,-23
0.605583048204814,0.0780552900841201,-0.0137994094677137,0,26,23
0.610604630879497,0.16131267155312,-0.0550087135653853,-9,29,5
0.570934616178625,0.113443832029355,0.0224438056239972,-0,-5,38
0.654104659987985,0.0838160194952488,0.0802742971122977,12,-14,14
0.501443650487376,0.102680937668342,-0.047103833566043,-0,11,20
0.729954366294813,-0.139553272342648,0.122432690527114,-3,-38,-26
0.726034972583397,-0.0309354087425568,-0.129882540483098,-3,32,-38
0.72853699905222,0.257208846924305,0.0478613176186525,-15,-20,41
0.674631338036728,0.144306147120473,-0.12695590870747,-12,35,23
0.589162322304337,0.15836043390389,-0.0797245494810331,-15,32,35
0.739951312446872,0.261925045199542,0.100578404508167,-9,-8,5
0.590726273948242,-0.0987085946249032,0.0380506640950037,12,-44,-29
0.594526558768595,0.0638601501712899,0.0475324056863816,0,-29,44
0.7182778902123,-0.224975247504553,0.132749677287155,15,-11,-17
0.711826529636,0.194968928986145,0.0454098363847394,-9,-8,14
0.711826529636,0.255548618902038,-0.154867733768062,-6,5,5
0.727453182074955,0.174889061296128,0.139481116489144,-12,-29,8
0.668259495054028,0.152730916457072,0.0611959917344101,-0,-20,32
0.714140105012202,-0.125756920260384,0.122755444222818,3,-35,-14
0.66553690148707,-0.148324490884383,0.108913087536013,15,-17,-8
0.658940127038981,0.149906811319542,-0.130188003783289,-0,5,8
0.667297639770448,-0.10753082091488,0.122960131609821,15,-20,-38
0.689864058796704,0.190713031183916,0.0177488105817706,-6,-26,5
0.7182778902123,0.0723150075924318,0.0300200268227917,-9,-38,5
0.649666126330143,-0.0784342138741313,-0.0566245547046225,-12,20,-35
0.734933817852194,0.077489645233064,0.14812300993266,9,-17,14
0.680102109403469,0.0529152260896276,0.034403611451151,-9,-41,41
0.675669377910854,0.0400353391908973,0.0470150638229141,-12,-20,23
0.71056769427476,-0.093318910930304,-0.117867473443732,-3,32,-14
0.740497369086256,-0.0663245959000508,-0.0940764351263368,3,20,-29
0.523292709985131,0.0635198330548261,-0.0672386218575321,-0,8,41
0.506641257371245,0.0939876382069787,-0.0268030732481861,12,38,32
0.686973224967922,-0.108839855573535,-0.0887870239029087,6,32,-26
0.646408195152947,0.0328977191422421,0.0855713951755914,-12,-23,41
0.682061214091111,0.165502450911185,0.129313070600186,0,-38,17
0.532418023996671,-0.0882548314469736,-0.0487562111890746,12,20,-38
0.69072966647607,-0.0359271128704994,0.136616976858905,-6,-20,-17
0.743665990728297,-0.170385663572707,0.090023849890574,-6,-14,-44
0.709559364678095,0.067080554578733,-0.143388491308051,6,5,44
0.638880089860919,0.0379754139761772,0.0278355671227323,6,-35,32
0.687558735552775,-0.176942455275621,0.104152151667859,-0,-35,-41
0.700280207432435,-0.100179644578099,-0.126928078151636,-9,44,-35
0.746067743079754,-0.261235059257634,0.072346748637556,-9,-23,-5
0.716550815756936,0.0400358882844962,-0.114578343019638,3,26,8
0.60791679446456,-0.0360954741181629,0.0976337492878704,15,-20,-44
0.689864058796704,0.0944116984362139,0.0771148285432083,-3,-11,5
0.578076564535476,-0.0997608587094857,0.0111202573526281,-3,-5,-44
0.548891145597825,0.0727872535466196,-0.0556322206226014,12,23,29
0.664544424957924,0.219076022131246,0.0945268188562396,3,-41,35
0.66553690148707,0.131045960639604,0.106767511772436,-0,-5,32
0.682061214091111,0.239109439505913,-0.0410766093684437,-9,20,32
0.746067743079754,-0.217213342591062,0.136859069736984,15,-29,-29
0.620447619858922,0.0176218334222592,0.04152611045042,-12,-32,38
0.505165410200653,-0.0368008227992307,-0.0610570694694739,0,14,-8
0.484247812697111,0.048361808572187,0.0239509777826183,-12,-5,20
0.749791920699066,0.199020968300593,-0.146122535879964,0,26,35
0.501443650487376,0.05594866107048,-0.00933275128558775,6,32,11
0.671469643983959,0.207655322217355,0.092872339843427,-12,-32,26
0.689864058796704,-0.0356381564537933,-0.133651129496152,-6,44,-20
0.53054924655956,-0.078815961310462,0.0751430408459857,-6,-38,-38
0.488694203377543,-0.120952604019421,-0.0407088236954439,-6,29,-26
0.523292709985131,0.0830461809314171,-0.0450043846857709,-15,14,8
0.631900786382371,0.171464111385609,0.0753803905682361,-9,-20,44
0.701711459290748,-0.249558520728797,-0.103233860528732,-3,32,-41
0.513649639634232,-0.134567309699419,-0.0404453636729108,6,26,-20
0.664544424957924,0.0907649090211239,0.0865129588356739,-12,-23,26
0.660736201406434,0.1387467390584,-0.0915289634656548,-12,44,41
0.739951312446872,-0.174928487988612,-0.118540556724201,6,11,-26
0.739281498610909,-0.0460714223572522,-0.0590133179031862,15,29,-35
0.68639339908563,-0.150406300494416,-0.0245098099723745,9,11,-5
0.635351865021208,-0.109250609544782,0.0390038726678555,-0,-35,-38
0.654104659987985,-0.159440721329643,0.0428899410125305,6,-20,-35
0.668965326316286,-0.0942847134373055,0.0738219567577462,0,-35,-8
0.668965326316286,-0.11999892599733,-0.0494083188171723,9,20,-23
0.688920414908919,-0.21017432282746,-0.0355214578373191,-0,38,-44
0.691519136129057,0.149540269425547,0.141095654634439,15,-5,5
0.711826529636,-0.0686436934300532,0.022598967998412,6,-29,-35
0.569850394599695,0.145897830737557,-0.0221353985923595,-0,38,38
0.534172593514506,0.153065149662006,-0.00962423970812264,-6,17,23
0.626881865040042,-0.159530959954362,-0.0573816965955111,-15,23,-35
0.660736201406434,-0.212092478244625,-0.11764730272047,-3,14,-11
0.681452528654191,0.0803082443133054,-0.0422716861779771,-15,32,8
0.626881865040042,-0.120748329048981,-0.0367320910170757,9,5,-23
0.582542438717379,0.160729547066858,0.0363025608454224,-12,-17,5
0.743665990728297,-0.222123251624056,0.0448224738519757,-3,-29,-35
0.650698668426807,0.155726610865111,-0.0821250344950659,-3,29,44
0.748644103793386,0.274797179653034,0.172279112712125,-15,-20,26
0.745115515638223,0.187341171055501,0.103556488264493,-12,-44,32
0.66553690148707,-0.0950194125544834,0.0711357919505052,15,-26,-11
0.604210642625856,-0.0356745764613823,-0.0951214273075996,6,38,-29
0.579928082919918,0.144121885821403,-0.0188558665819389,12,29,38
0.655246991870903,-0.218812242522174,0.0769110307279306,3,-29,-11
0.686973224967922,0.0904673451589562,-0.139073573966314,6,26,35
0.479791362380387,0.100641195143353,0.0163784270037717,-6,-14,35
0.577411136527419,0.1323516516357,-0.0319657829158233,6,8,35
0.675669377910854,0.239207300070792,-0.0870815519074558,12,41,17
0.721274879409493,0.0879808133303148,-0.143744136789138,9,14,35
0.614871067776544,0.0447115758552473,-0.108821176709605,-9,41,14
0.733168015168723,0.18178545704487,0.0722246144074711,-3,-32,23
0.675669377910854,-0.126121085914406,0.0712823002162322,-3,-23,-38
0.726034972583397,-0.115836280876255,-0.0882108919741362,-0,14,-38
0.639930467158707,0.188806155687635,-0.108596802090498,9,11,23
0.693806413950989,-0.129271601593221,0.0387645515380133,15,-11,-29
0.658940127038981,0.18251271232135,0.0630473434998816,-6,-35,5
0.668259495054028,-0.113086081422885,0.0155550239755173,0,-29,-32
0.726034972583397,-0.100002843484426,-0.154113604674159,3,41,-23
0.688267604357809,0.228271004907408,-0.104895672411602,9,44,26
0.515057863433442,0.109163935241667,-0.03926314701019,12,11,29
0.634378096186878,0.0876482899023577,-0.0955521401256332,0,32,32
0.641738353377187,-0.215576306026902,-0.0854278482401464,-3,11,-32
0.69558788170852,-0.124800211583861,0.13073402474521,-15,-26,-35
0.724546376990618,-0.20544566403309,0.106135533235519,-15,-44,-14
0.582542438717379,0.0251645174533619,-0.0526271443087245,0,14,5
0.634378096186878,-0.133239695906645,0.0335234757037688,0,-35,-17
0.578076564535476,0.180951386233521,-0.0854314399043359,12,14,44
0.542006806082613,-0.0367463103533787,-0.0658184274440526,15,26,-5
0.641017699105215,0.1594186542166,0.123336704951606,-0,-38,41
0.628716637264818,-0.187166489674496,0.0960375450156843,12,-14,-32
0.582542438717379,0.174637242108305,-0.0221424116499696,9,11,29
0.604210642625856,-0.076588082310186,-0.021200900804698,3,8,-29
0.49776257635664,-0.0453065675856914,-0.0183633531120041,6,14,-41
0.738340585719072,0.137352174202473,0.0940117167856825,9,-11,44
0.590726273948242,-0.146853159177886,0.0768601854928191,0,-38,-14
0.72853699905222,-0.232308253559621,-0.0804075010805546,-15,11,-38
0.726595338738278,0.0561962060573568,0.14654684261701,-12,-8,44
0.639930467158707,-0.15135850125757,0.0774925157708916,-3,-32,-26
0.729954366294813,0.172091933028239,-0.0456865459534221,-9,20,20
0.674631338036728,0.18067361195164,0.0399455821241175,-12,-32,35
0.688920414908919,-0.19737875756719,-0.108435395132958,-0,17,-44
0.477003220062564,-0.044724154065666,0.0256980486732969,15,-14,-5
0.714140105012202,0.237386687573932,0.11371591739229,0,-29,17
0.676757642143365,0.0794015446642989,-0.126813899058458,12,8,32
0.746067743079754,-0.194949875720633,0.136255100261447,12,-38,-8
0.675669377910854,-0.0335374026328516,0.0720520951112257,-0,-23,-8
0.735515715048859,-0.0570259971547413,-0.0848621146914738,-12,20,-41
0.483412129176314,0.121883084162601,-0.0600387819417425,-0,20,5
0.727453182074955,-0.154729944210487,0.0682085355220541,-12,-5,-11
0.741658824638101,-0.125211914992628,0.153657924175484,15,-29,-44
0.590726273948242,0.108375464414395,-0.0177345375975186,9,5,11
0.664544424957924,0.0974242972067256,-0.0528077202999637,15,11,41
0.639930467158707,-0.0658734889713931,0.086421687679217,-9,-41,-35
0.727453182074955,-0.189397414080024,0.124280550315673,-12,-26,-29
0.56574435382622,-0.158188682235604,0.0760688305816437,9,-14,-29
0.706657440549292,-0.0698200783662248,0.156650651087579,-3,-23,-23
0.571699646689366,0.1435177918701,-0.0783715366071569,6,32,38
0.740497369086256,0.103906736758464,0.162502024838811,6,-29,20
0.679226540999037,-0.0746445085036114,0.0668085827035573,12,-32,-5
0.660736201406434,-0.163563957324179,0.0200339206678755,-15,-17,-38
0.687558735552775,-0.126853575937615,0.0657076441027437,-12,-29,-41
0.7182778902123,-0.145589951912058,-0.0662565982500541,9,23,-38
0.735515715048859,-0.139233265942903,-0.1614555040964,-0,8,-44
0.704745516434769,-0.134352385771021,0.0900875904908303,6,-41,-11
0.662297511509841,0.0957947166039548,0.105231570487531,0,-5,29
0.521496413319101,0.0445655686106008,0.0552898852976251,6,-38,35
0.499285861890932,0.105021806568591,0.0579517647665464,15,-32,38
0.740497369086256,0.0737003684470391,-0.105729287308943,3,23,17
0.686973224967922,0.0933664691161023,0.00763191325808755,0,-14,29
0.726595338738278,0.0974556098132065,0.0791290539651223,-9,-8,29
0.561193457223601,0.040665440385704,0.0737036960906663,6,-14,32
0.675669377910854,-0.0680660187880326,-0.11321885673391,0,29,-29
0.641738353377187,0.0865033536827142,0.0971316065781691,6,-44,14
0.731934150954525,-0.238101707488541,0.133013198749878,-0,-11,-38
0.474009281324281,0.0880506797721036,0.0182360972455891,-12,-5,32
0.660736201406434,0.213528810493669,-0.0175079766564187,-6,32,17
0.669477225271329,0.16071053129556,0.0807043389523428,9,-41,26
0.583715290619651,-0.142688471517922,-0.0360523426972804,3,8,-35
0.633062552710843,0.200316565040848,0.064804844964857,0,-32,5
0.707379900448042,0.18244063946498,0.0907355517581463,3,-8,5
0.577411136527419,0.0305372253367401,-0.0545830491917539,0,11,29
0.605583048204814,0.0922366506442731,0.0551466129149867,9,-8,11
0.729954366294813,0.0726663839237763,0.104603248799911,-12,-5,38
0.604922298703373,-0.149022305214473,-0.107859497293996,15,32,-11
0.669477225271329,0.181397320408951,0.0101937460328438,-12,-23,23
0.700280207432435,-0.211890162362448,0.0521553995887919,0,-44,-8
0.726034972583397,-0.0578604560141639,0.137878673118277,6,-26,-38
0.734933817852194,-0.271663096545367,-0.0655642518455268,6,5,-20
0.741658824638101,0.158457253796706,0.114375477200521,6,-20,23
0.667297639770448,0.153389602806566,-0.0220385958027411,0,5,44
0.593006128604263,-0.161945123784124,-0.049096008554714,15,41,-5
0.646408195152947,-0.216600050960781,0.049094853999681,9,-41,-5
0.613613346690263,-0.135552892510048,0.094651848442783,-0,-11,-17
0.69072966647607,0.210132283211602,0.128570433140983,9,-14,26
0.738340585719072,-0.0487151184341519,0.0646207250616714,-12,-38,-44
0.628716637264818,-0.116839667100808,0.111031348168953,-12,-8,-8
0.724546376990618,-0.262331907530039,0.0906453789215151,-12,-14,-35
0.674631338036728,0.0657423242704967,-0.111159054980266,12,26,26
0.605583048204814,-0.190618669201942,0.0342969107211079,-9,-32,-8
0.729954366294813,-0.271190280234958,0.0802328966698048,-12,-8,-26
0.693806413950989,0.0689972221908791,-0.0954719547552012,15,14,26
0.614871067776544,0.0889043333749269,-0.0622305136184365,3,38,35
0.571699646689366,-0.0720419569719323,-0.0893780629547729,-0,14,-26
0.707379900448042,0.184468569113175,-0.148748570569129,-12,20,26
0.679226540999037,-0.219923644514295,-0.103756183883502,3,32,-11
0.731934150954525,-0.124829401949558,-0.0281154832223715,6,32,-41
0.707379900448042,-0.0717466589403023,0.0444092922178928,0,-35,-20
0.687558735552775,0.157474447583255,0.084399713363972,-12,-5,35
0.679226540999037,-0.211605837105058,0.0901620125703488,-6,-41,-44
0.452347463128562,-0.0719321264807447,0.0348871184920538,0,-41,-44
0.660736201406434,0.127218481265443,0.0332758431869858,3,-26,20
0.528647562263903,-0.0882418070228101,-0.0722260982751456,6,29,-14
0.704745516434769,-0.115608301531381,0.138833882312742,-9,-38,-29
0.49646674757633,0.135017948823121,-0.0118744293828678,15,41,35
0.576468005809371,-0.178506971739979,0.0712550078329093,-15,-17,-41
0.689864058796704,-0.203902662806845,-0.137035078655462,3,41,-17
0.587955303145588,-0.0554729491976517,0.0976159585185608,9,-17,-35
0.602203371071562,-0.0416205004554786,0.0295746415492959,-3,-8,-38
0.532418023996671,-0.0139178304468455,-0.0382688355694969,9,20,-35
0.718933275971715,-0.106489684933249,-0.119055884730806,9,26,-29
0.650698668426807,-0.185529180132835,0.107736241122518,0,-26,-44
0.666209852259832,-0.179550846685925,0.0685371492221456,-3,-35,-5
0.662297511509841,0.0952169550594349,0.067269465731305,-6,-26,14
0.664544424957924,-0.163152462742042,-0.12676513743233,6,17,-35
0.620447619858922,-0.104539944642668,0.0638767337565222,12,-41,-41
0.727453182074955,0.248113318329898,-0.117902103555234,-0,20,20
0.60852850312509,0.160267444742567,-0.103648851448456,3,20,11
0.736408451774532,-0.164630323082357,0.0285822215372945,12,-17,-17
0.681452528654191,-0.191839901603723,-0.0931587913336204,0,41,-41
0.66553690148707,-0.117408211096933,0.114550771395863,9,-35,-5
0.655803988912505,-0.0894063734109315,-0.0380064025374901,-6,29,-23
0.605583048204814,-0.143272030964092,0.112095342391944,-12,-38,-20
0.627687945967552,-0.132107522329137,-0.0349812398162869,15,8,-5
0.749791920699066,0.0469026549205065,-0.0627641406034903,0,35,29
0.688267604357809,0.232515465051618,-0.0881199826337461,-6,41,29
0.679226540999037,-0.172394765208134,0.0499287666920991,-3,-20,-17
0.654104659987985,-0.158954489663228,0.117857325174923,9,-35,-35
0.593006128604263,0.0616504546405089,-0.0349865566714367,-9,26,38
0.740497369086256,-0.0406983795380344,-0.166661385386304,-6,41,-41
0.613613346690263,-0.0756466337242327,0.0780298062199708,0,-5,-41
0.72853699905222,0.121436063031541,0.103291861300696,-9,-38,8
0.668965326316286,-0.135089532487328,0.0846884410233125,6,-38,-20
0.748644103793386,0.233685354499793,0.174543658308318,0,-14,17
0.655803988912505,-0.112592081490256,-0.0437536962986754,-15,17,-20
0.688267604357809,0.130254730207914,-0.042225787942624,6,14,20
0.746713976605093,-0.135992341503493,0.133803473880571,12,-20,-17
0.641017699105215,0.0689989300996171,0.12318823776073,9,-38,35
0.701711459290748,-0.230252500215962,0.0973865535210209,-0,-29,-8
0.578591368482334,-0.105747985681177,0.0682610044344885,6,-41,-26
0.711826529636,0.0330585537921864,0.151714453856931,-0,-41,5
0.686973224967922,-0.145847921898341,-0.134978166967471,12,41,-14
0.576468005809371,-0.0501161932063616,0.0624816948605363,0,-29,-38
0.71330576285449,0.218544751248021,-0.156531314939079,-3,11,23
0.7182778902123,-0.251547618542478,0.0377110581012471,12,-20,-44
0.587326754332979,-0.0358474292251402,0.0840457584728727,12,-35,-29
0.736408451774532,-0.250976255670895,-0.0173728717998988,-0,44,-23
0.738340585719072,0.0810105582650246,-0.0869839208575623,9,17,44
0.634378096186878,0.0944182392944128,-0.00960618686898283,-9,14,38
0.570934616178625,-0.0426083946434158,-0.0802487793894628,-6,14,-17
0.4935103811471,-0.109733809290057,0.0455536030265546,-9,-38,-26
0.734933817852194,0.132328272502727,0.0328667276936365,-9,-17,41
0.533486547538796,-0.0682263977475185,0.0482806824028184,-12,-38,-38
0.73106787901648,-0.0711860851587233,-0.0929133698117182,15,35,-29
0.709559364678095,-0.117328473749226,-0.0946829473501342,-6,11,-35
0.724546376990618,0.162989345560515,0.120043994194296,-6,-5,23
0.584613477230126,0.172139642971526,0.0803921070658351,-6,-41,38
0.51566895429648,0.109812986109079,0.0253157820465394,15,-38,29
0.626881865040042,-0.109700550677783,0.0516087894384868,-15,-41,-44
0.749791920699066,-0.0863477818318528,-0.156730961940483,12,38,-5
0.561915609106642,-0.155617729802432,-0.0901475140465754,-12,35,-20
0.726595338738278,-0.124730458413228,0.130964244949198,-15,-23,-14
0.617662363883212,-0.117815293634842,0.0160437026504735,-3,-17,-44
0.658940127038981,-0.101764068930346,0.0652256882783794,9,-44,-20
0.659853620684598,-0.0452709360809966,-0.106051173350891,15,35,-35
0.659853620684598,0.0836084186272216,0.136839873997862,9,-17,17
0.63740069815825,0.119009170519697,0.106735803506102,12,-11,38
0.47495601282455,-0.0688594320746731,0.021506927137703,12,-29,-20
0.739951312446872,-0.047694798247342,0.0320875030246981,6,-14,-23
0.693806413950989,-0.19266478143469,0.132678138021601,-9,-32,-38
0.622883177822818,-0.122900448556949,-0.0222756762738533,15,26,-29
0.741658824638101,-0.143387852447873,0.158530225486663,-0,-35,-5
0.711826529636,0.0905697032635462,-0.0767180980312968,-15,5,32
0.731934150954525,-0.0612087352285861,0.0448312859428763,3,-38,-38
0.703534127708271,0.204593291427969,-0.122001099980809,-6,38,32
0.688920414908919,-0.0703282980331764,0.0946287225547766,6,-11,-41
0.471599823807355,-0.0351466682178162,-0.0283173596470774,3,11,-14
0.687558735552775,0.235056173630648,-0.050600583538484,12,38,29
0.726595338738278,0.265538601517043,-0.157848594180329,-3,32,35
0.654104659987985,0.203374413317208,0.0602036847830363,0,-32,17
0.71330576285449,0.188922008323813,0.0951177865199773,0,-20,38
0.687558735552775,0.120881667687907,-0.0802309487803181,9,17,23
