X,Y,Z,R,P,Y
0.642858850168868,0.0887838661257789,-0.0984172084413601,12,11,14
0.584703109964226,0.0178987356286081,0.031435532663622,0,-26,35
0.683606787005116,0.162854706309528,0.0889054646701457,-0,-38,8
0.698515015931414,-0.171319027195473,-0.0926189320691462,12,23,-38
0.748642408592037,0.0996335459335634,-0.0758023703210873,0,32,35
0.698515015931414,-0.0333907914538374,-0.110812106766067,6,5,-5
0.662198022092434,0.157047984185936,-0.124805783689061,3,41,20
0.452232012931819,0.0943949057539249,-0.0425576797162256,0,29,14
0.667960126913175,-0.163522537507495,0.111244372189776,-12,-26,-32
0.728954220093709,-0.215081139496139,0.062048598583534,9,-20,-17
0.735431357040782,0.179058974895837,0.0535414365563955,-3,-11,8
0.676668550042945,0.217575456869677,-0.0599839539065128,12,29,17
0.657615658510101,-0.187609639786856,0.0961537562887009,3,-14,-5
0.691355006960483,-0.0274353378665037,0.0852490282081533,-9,-41,-11
0.748642408592037,-0.0357967311253043,-0.0969224178300947,-9,29,-29
0.728387352329732,0.0549383279073055,0.0844130964435609,-15,-17,17
0.578870996236046,-0.0845170290100437,-0.0790603864288064,-3,20,-32
0.698515015931414,0.13315967524507,0.15041875458687,6,-38,35
0.64803519103214,-0.072680053548792,0.119262490443942,-15,-11,-38
0.616059754893702,0.0960378651839059,-0.0432711843308874,-0,38,29
0.608936131134707,-0.0529861989811686,0.0966744741640652,-9,-5,-11
0.635543554854221,0.0200262641609694,-0.0557846345737914,0,38,44
0.519575232022692,-0.086127811193663,-0.0083353976590895,3,44,-41
0.681533590230678,0.193915755149857,0.0304462932588983,-0,-11,26
0.692507018384001,-0.239314694335073,-0.028457731837893,3,14,-23
0.64415322532284,-0.0331350221613433,-0.0904454144510342,-15,29,-44
0.742728640825079,0.129554833215661,0.0914163175700844,-12,-41,11
0.686818323623275,0.156568444924892,-0.124613863581242,12,14,26
0.694098597623036,0.231747359853523,-0.103260023123995,6,35,32
0.745931664180311,0.144525702456019,0.124712463031958,9,-17,29
0.726300540482033,0.131378265761996,0.162974972788401,-15,-32,44
0.676114078146892,0.0928819761725382,-0.100830884925594,12,38,35
0.667960126913175,-0.0817095993832104,0.124295174722369,9,-23,-29
0.620109757872615,0.0984566694379259,-0.0884263874108457,-0,5,20
0.702595928210191,0.0326562715545323,-0.135780957834239,-9,8,38
0.511520049099115,0.071018743693582,-0.0567484341780616,3,38,20
0.617676699334776,0.0493937772864964,0.0558727372185369,9,-32,5
0.726300540482033,-0.051760100291362,-0.0507871611775521,3,8,-26
0.665007996995995,-0.0653298024968734,-0.0240452722872051,12,26,-11
0.578870996236046,-0.088866168538286,-0.0443626734988459,-3,11,-26
0.695674743725495,-0.144953764734062,0.0527644054582837,9,-41,-20
0.582729041293477,-0.106940279908948,0.0727848103425769,-9,-8,-35
0.698515015931414,0.132893114571346,0.124293336842056,15,-41,17
0.608936131134707,0.125475929185442,0.0830456180687867,-0,-17,29
0.608248691312803,0.128193913595734,0.0728863968229155,-0,-44,5
0.47766014737516,0.0845691452106603,-0.0444805584118474,-15,5,8
0.584703109964226,-0.0934069256307394,0.0695950283218916,6,-26,-44
0.745931664180311,-0.0911946098283916,0.149576204856901,12,-35,-20
0.745931664180311,-0.191594776054608,-0.120928572103603,12,17,-5
0.581882991560984,0.0992440441004968,0.0526511568875788,3,-29,17
0.577498465507547,0.176825692063286,-0.100827726573432,15,44,32
0.665007996995995,-0.137461337718388,-0.0997539648636885,15,8,-32
0.67533604781858,-0.0918660229674835,-0.0539318837025924,3,5,-29
0.737152279239235,-0.0713259442021951,0.16404616613148,-0,-11,-41
0.533223974724123,0.119158122798387,0.0405663931385361,9,-32,8
0.725306386997339,-0.0692222786719069,0.145758194425944,-15,-20,-17
0.674274166840968,0.192518064543998,0.0712033427691063,0,-29,5
0.585259720614555,-0.151762936189279,-0.0346889555786902,15,29,-41
0.584114309202705,-0.119181432671955,0.0708585463522555,-9,-41,-26
0.706698466632717,0.243285336737619,-0.0549840006976778,9,8,8
0.740897281958157,0.111070667170931,-0.1244911045823,15,20,23
0.653294116485439,0.182237648049742,-0.119810327347742,-12,41,8
0.584114309202705,-0.126646349352531,-0.10348465237386,-6,11,-35
0.67533604781858,-0.140871141596669,0.0697531037741948,-12,-32,-20
0.702595928210191,-0.0937473198450419,0.0518101751728281,9,-8,-5
0.725306386997339,0.130063693740561,0.141849865461633,3,-8,32
0.473075408687818,-0.0762981105680852,-0.0246593973097333,-15,35,-44
0.566838894608121,-0.177300717754473,-0.0254395494940877,-15,41,-35
0.50599561375203,-0.136841884228289,0.0651297039490476,-15,-5,-35
0.748642408592037,0.0712078593970696,-0.0736243628353468,-6,5,41
0.628234409755562,0.0725583273408335,-0.121530455852237,-0,20,14
0.588118771242662,0.0743837703759169,0.102812348078937,6,-11,44
0.49924033548859,0.0704350565176956,-0.0230010000331451,6,8,29
0.63105687241615,-0.109993995556659,-0.0652182446342875,-12,11,-38
0.661610845552526,0.0150044483008935,0.101950958649805,3,-41,17
0.736196765549361,-0.114304592272092,0.158611274393456,3,-5,-26
0.673754048572363,-0.179799868459372,0.0575554475201913,-15,-44,-26
0.747418899408089,0.0858292304956493,0.153340708615969,-15,-26,5
0.682758917198425,-0.105179055236368,-0.0829338537062552,-3,44,-14
0.583340770993152,0.139849943335798,0.0763501579686163,-9,-5,5
0.680966194690456,0.138685803020729,-0.125714197792995,-15,41,38
0.604958066394764,0.191477722001982,-0.0570019907469059,6,11,14
0.527258797141692,0.0573468257346607,-0.0409784676835499,-12,38,23
0.566838894608121,0.112300899755563,0.0792821834589432,0,-8,35
0.59294607080526,-0.150964897352482,0.019196696373963,12,-23,-5
0.553897275376608,-0.166596500455725,0.0895362951142667,-12,-32,-35
0.743835092985022,0.212918216529459,0.141950789121883,-0,-5,38
0.735431357040782,-0.109764343381313,-0.0420674618063924,9,5,-26
0.608936131134707,0.202414040662937,-0.0755154979071267,15,17,11
0.478709528543876,-0.102418016652164,0.0235128113972899,6,-8,-38
0.561460499249311,-0.158947998932924,-0.0180679562348202,-15,44,-23
0.619382868707442,-0.0736683734211935,0.0393086017616659,-12,-32,-38
0.692507018384001,0.0762562482285044,0.0381055032428612,12,-5,35
0.689298808491567,-0.0554404279332154,0.020485761157166,-0,-5,-41
0.502828656481493,0.140815876188447,0.0402540347535957,-3,-5,11
0.665007996995995,-0.157069497854978,0.0548172578314083,-12,-14,-44
0.615462452670685,0.104530636077467,0.0307815994766132,6,-20,29
0.539792971920874,0.0439237812466151,0.0693090732460396,6,-26,29
0.728387352329732,0.060703924850979,0.0561488451457081,-6,-14,32
0.563054911672786,0.133319161109137,-0.0410445516150735,15,11,41
0.588804598406658,0.0436925152828653,0.0235981933504061,-9,-8,44
0.633210894758722,0.122036371613233,0.0350766115456681,3,-38,17
0.670643682708511,-0.221472592083666,0.11268392031368,9,-29,-23
0.749630321257173,-0.222767874900154,0.124803719636929,12,-20,-8
0.636587247090777,0.0283391438310687,0.0158956259362791,12,-26,20
0.681533590230678,0.224686063897194,-0.0234258959293772,-6,5,35
0.454520258264861,0.0111507990447858,-0.0127548241971879,-0,41,44
0.641055640412648,0.158469701403333,0.0599485496642252,15,-20,35
0.595741427389664,0.0554430794290661,-0.0352618101215733,-6,20,5
0.7302863961621,-0.0226386358676804,-0.16289698260677,9,26,-32
0.683606787005116,-0.190586217514622,-0.0733863880779379,15,26,-11
0.715867855493864,0.0705128822358221,0.0853799378398855,6,-5,32
0.726300540482033,-0.266092309919118,0.141938031405862,3,-38,-26
0.667960126913175,0.0232735657792017,0.115197811233205,9,-20,41
0.603650771307292,-0.0566095790116235,0.0421890484595949,-12,-32,-29
0.590925280885168,0.114887848422929,-0.0185575889391066,-3,20,23
0.719231105214723,0.196472672104376,-0.0281029760628274,0,38,23
0.633210894758722,-0.0403827507737749,-0.044744418654063,-6,26,-35
0.611182384430712,0.0217239104053926,0.0664636068139186,3,-26,35
0.558568649315932,-0.0634938265412941,0.0187741716697794,-3,-32,-11
0.651462122233231,-0.189633493519027,0.131868166049742,15,-5,-29
0.662198022092434,-0.164070966002279,-0.0533996341179571,-6,20,-14
0.577498465507547,0.117574247295151,-0.0918050869046072,6,14,20
0.71483312147607,0.0445652604470479,-0.0485457604228035,3,41,23
0.635543554854221,0.115813241288657,0.0636471531793776,12,-8,32
0.55115637229771,0.118849230735224,0.0244836207026477,-9,-44,35
0.671956249958491,0.0602153568351071,0.047975085079479,-3,-41,11
0.565925077554083,0.0609664585228848,-0.0394619693220748,12,17,17
0.53091146133457,0.0722062081500139,-0.0166002915920138,-15,35,11
0.654761830968524,-0.202835785403903,0.103801380336323,0,-23,-26
0.59294607080526,0.0897154429429532,0.0166622331696447,-6,-44,14
0.635543554854221,-0.0540283095363376,0.056780683911592,-15,-29,-32
0.702595928210191,-0.256379461498337,0.0466915989105999,12,-20,-44
0.620902895326303,-0.209722679140689,-0.0671617698774983,0,41,-14
0.614911873120343,0.196843009988688,0.0819821207872226,-15,-29,20
0.50783157694695,-0.0586046159019706,-0.0359490909706617,-0,8,-11
0.545258710723124,-0.0587242922969292,-0.0286178534261694,-0,38,-32
0.728954220093709,-0.135849402624084,-0.135220964603763,9,23,-11
0.743835092985022,0.155907947974501,-0.115668095907705,3,44,32
0.611182384430712,0.0806630401702146,-0.0804244013197186,-0,41,8
0.711260331498203,0.181924160906505,-0.104828929895508,-6,32,8
0.748642408592037,-0.267657864060081,0.0568938486571657,-6,-17,-41
0.736196765549361,0.135984234645894,-0.100083573972372,15,26,32
0.633210894758722,-0.0733807481604359,-0.0227194707366897,3,8,-44
0.491053233846947,-0.0237569078441365,0.0200979193551579,-12,-14,-17
0.610266184950304,-0.145197967694421,0.115663641167058,6,-38,-8
0.722219702494394,0.0741383009673634,-0.125076822588815,6,29,38
0.700764975275819,-0.151537733839257,0.0673538614600839,3,-35,-44
0.51757833521524,0.00844804190170698,0.0691211718798519,-9,-41,5
0.671145194724599,-0.127113604973697,0.0907930336770284,0,-17,-32
0.628781903071894,-0.170930692300145,0.108141500296904,-15,-8,-11
0.740897281958157,-0.117553639733171,0.0330012188582929,-0,-44,-32
0.588118771242662,0.14388166893354,-0.094642237123323,-15,20,26
0.59037239836975,0.156375983648083,-0.0775315570549294,0,5,17
0.697781361402809,0.0306832469035252,-0.0196678121780401,-12,5,20
0.745931664180311,0.196722416556713,0.165786827357004,-9,-5,44
0.71483312147607,0.247611456404294,-0.110585187275316,-6,32,17
0.465032706269189,0.111838181984843,-0.0494403084972516,6,38,38
0.600622677990061,0.14815364950323,0.0223756514069418,-3,-32,23
0.555734439753374,0.13595240489776,0.0286648177451985,-9,-32,29
0.711260331498203,-0.081805712727214,0.0858159190982657,-0,-23,-20
0.663245941521842,-0.163525547962487,0.0589045834093544,15,-38,-20
0.681533590230678,0.0544196450810305,0.0732650762533019,-0,-5,35
0.542866492957491,0.109002498852672,0.0729373751284342,15,-8,5
0.691355006960483,-0.182113045623298,-0.117393474756428,-12,17,-14
0.64803519103214,-0.0679856428813833,-0.0958170901357419,0,8,-41
0.728387352329732,-0.103915906622563,-0.128144581483769,-6,14,-26
0.683606787005116,0.133330264696461,-0.100684940414813,3,23,5
0.669251628588086,0.0938791520674809,-0.0212161588924117,-0,38,38
0.698515015931414,-0.253171948893247,-0.0948705668993944,-15,20,-32
0.495652599835613,0.0452853563702401,0.0327847002929009,-6,-35,41
0.543804756832332,-0.122994461972863,0.0223148369320201,6,-23,-11
0.640428281636398,0.135514075572847,0.0202098618876075,-12,-41,35
0.552600447335407,-0.164159420152358,-0.0456886946911002,0,29,-35
0.725306386997339,-0.0754204069152272,0.141752152803531,-9,-26,-8
0.619382868707442,0.0600059903494353,-0.0640437079301065,12,29,5
0.7302863961621,0.098847197609704,0.158276058368476,-12,-8,23
0.728387352329732,0.259608377913568,-0.065864989280489,9,38,20
0.522211492621366,-0.0860320764206663,0.0204491722820781,15,-35,-5
0.728954220093709,0.103820439567155,-0.144262392781386,12,32,32
0.728954220093709,-0.261464147674698,0.126076231942475,9,-14,-14
0.566838894608121,0.062018766634937,-0.0601947147724517,-0,41,41
0.702595928210191,-0.199387006420568,-0.138540248169344,15,32,-17
0.642858850168868,-0.0676362429739025,0.0902835882597488,-0,-11,-44
0.651462122233231,-0.206483832669112,-0.116100729688515,6,32,-5
0.689298808491567,-0.194118637011472,0.0998068800995515,0,-20,-17
0.715867855493864,-0.243358545024326,0.110165648794312,9,-26,-17
0.480028621892933,0.0852303913522418,-0.0422470388700512,-0,23,23
0.636587247090777,-0.17077698287913,0.0820438406638867,6,-41,-38
0.535994057608415,-0.0695802195775801,-0.0506591887442158,6,29,-11
0.683606787005116,-0.167996407373356,0.036617759244077,12,-20,-38
0.663245941521842,-0.0602926965718396,0.0261748307071454,9,-14,-23
0.691355006960483,-0.0734785786850168,0.0502196523622492,-3,-26,-17
0.67533604781858,0.20862436415818,-0.0802812983998975,9,41,35
0.46831557950846,-0.0718807089512256,-0.0485601695187011,3,8,-38
0.680966194690456,-0.18029450357804,-0.0550180719440236,-0,29,-23
0.732214171380137,-0.0204891095769136,-0.0647648476284452,-15,14,-26
0.728954220093709,0.14041651359923,-0.0649964143339335,-15,23,38
0.640428281636398,0.133524524801508,-0.0264118771573174,-3,8,23
0.491053233846947,0.0710864118249089,-0.0640135030997172,15,8,38
