X,Y,Z,R,P,Y
0.710615607231969,-0.180939229248768,0.0379724429791377,0,-26,-32
0.655221321518486,0.177182634953026,-0.108964179097491,-9,8,41
0.641609459081298,0.193476375371417,0.087842589801985,-3,-17,44
0.537521161219579,-0.0856882708766779,0.0800066841633282,6,-32,-29
0.691146096700652,0.230808854802561,-0.0240812655356972,6,11,38
0.678329356069648,0.151939533024677,0.138316831912939,-3,-32,14
0.706983213063421,-0.20841083381179,0.147049042265492,12,-20,-8
0.641609459081298,0.0581120764392803,0.0206658440243708,3,-41,20
0.528744322410192,-0.0310463089119818,0.0116759443729187,3,-17,-26
0.508528552622214,0.134861623271831,0.0200918416712106,-6,-23,44
0.71720032322203,-0.059617338927321,0.0546704457709516,9,-26,-23
0.693226699321559,0.103630954749528,-0.0608602008020207,12,35,35
0.666761403625913,0.185178763438735,-0.0515990945527819,0,20,5
0.729804889840189,0.144059765111878,-0.0483314945254849,-6,23,38
0.722151890754353,-0.146162977054524,0.12127001153095,-12,-26,-29
0.722151890754353,-0.0944672483963716,-0.0635397780055462,15,41,-23
0.655221321518486,0.179631699973841,-0.0902906692667772,9,20,38
0.682453005619253,0.143744464377818,-0.0971596692312721,-12,23,41
0.553579914168002,0.144004940042914,-0.0720733600710222,3,26,26
0.528042447390506,-0.100717030994041,0.0757557388540994,-0,-32,-11
0.684432300691099,0.226505221571373,0.141281044286605,-3,-8,29
0.653935835242751,-0.185200037866861,0.0703846177614655,0,-44,-11
0.648860674111336,-0.0827078897135231,-0.120171962525626,15,5,-8
0.738734947282219,0.107783888123254,0.0549912917600322,9,-32,20
0.713690044325453,0.112403457129476,-0.132309804552811,12,38,11
0.733972689756069,0.228869040223217,-0.12469596828272,-0,23,29
0.641609459081298,-0.129021313793114,0.0992268516950439,15,-38,-35
0.71254010377933,0.260070233423033,0.155279799331022,12,-20,26
0.573248963465926,0.130668617975256,0.0486571694778568,15,-44,20
0.744013800403426,-0.248190056136238,0.0904449749459536,-12,-11,-44
0.661902305538741,-0.0597558280966427,0.125386239845416,-6,-44,-5
0.708331816177009,-0.130697252812748,0.153941428559315,-15,-32,-26
0.710615607231969,-0.109467936281395,-0.12581900682286,-15,32,-32
0.682453005619253,0.0643154387140874,0.0692550311757601,-3,-44,5
0.692221626269267,-0.152831943297723,0.0850002260305507,-0,-8,-41
0.651951442300513,-0.0735698453815911,0.120622248416331,-12,-5,-23
0.693226699321559,-0.250537698238287,0.0848899192798213,12,-32,-8
0.738734947282219,0.206504610860329,0.0504885378155853,3,-29,17
0.693226699321559,0.244508223212281,-0.107515793353736,6,44,44
0.693226699321559,-0.170868481563176,0.142440404642505,6,-14,-8
0.728630972964024,-0.134487223424232,-0.108406814521441,15,20,-26
0.666761403625913,-0.234501649057741,0.0904060369505683,6,-41,-23
0.651269086421795,-0.0625334203073692,-0.116588660207091,9,32,-11
0.601670943779027,0.142957469415378,-0.102815177318,-6,29,11
0.468812035306545,0.0354113190481014,-0.0456311712901609,15,23,17
0.643757929702665,0.137946124743925,-0.115731016749796,-0,14,17
0.620572216504412,0.100453436769573,0.0714066128765914,-0,-14,26
0.632238623957056,0.0392849603008997,-0.106295410691588,0,5,20
0.620572216504412,-0.187046494795785,-0.0674007351565244,6,17,-32
0.574459568025236,0.0962750116666753,-0.0722346521418458,0,14,23
0.653935835242751,0.0936193586465702,0.0771508937756402,-12,-44,5
0.715969000843156,-0.112380871353172,-0.158524332964652,-15,17,-35
0.588699845011383,-0.0962221029090507,-0.0848188156726041,-15,8,-29
0.508528552622214,-0.0796203989917182,-0.0581424769069955,-15,29,-20
0.622581894759944,0.113098444395175,-0.119478460714446,-0,26,44
0.591350854943585,-0.185896373531376,-0.0310820346754919,15,5,-20
0.686178850454676,0.078562681787103,-0.0884593836099365,-6,41,8
0.717767846189455,-0.0980615281968421,0.152479704502747,-12,-29,-14
0.651951442300513,0.0405582079378212,-0.128395966981412,6,29,20
0.657420143811217,-0.221837225502259,-0.045781638320996,-12,32,-20
0.565765921117311,-0.147482244046356,0.0703083586460347,12,-8,-26
0.526210340540195,-0.0441569278195265,-0.0230985960411282,-0,32,-14
0.621163485849717,0.151104397356017,-0.118058926732283,-0,32,32
0.623577896858789,-0.0954154930010968,-0.0517779450963084,0,17,-41
0.708331816177009,0.0633417339302122,0.045417234606846,9,-38,5
0.6263252317921,-0.0445164890353864,0.0571680524816668,-3,-23,-8
0.606760611090662,0.0673398508238289,0.0826164117722415,-3,-38,23
0.684432300691099,-0.106127586267494,-0.133532748891251,-15,38,-8
0.602429924386066,-0.0292151943114709,-0.0851035844185044,0,41,-44
0.742694035862426,0.16020701843375,0.0752597036182167,-6,-26,38
0.732058021844401,0.181088848716807,0.0766064618278041,-6,-38,35
0.706296538373253,0.127240943181774,-0.155993157239584,6,11,23
0.560207805900678,-0.129819325885818,0.0479212415287017,0,-8,-26
0.567712863252968,0.102551041669427,-0.0444351478956714,6,8,26
0.497580063263067,0.0840706521780019,0.0512626064449269,-3,-38,20
0.599641258651861,-0.180745970494769,0.050080584480172,-6,-20,-5
0.497580063263067,0.130039446950064,0.0230227559340341,-6,-29,23
0.744013800403426,0.0269125286362505,0.0918618194535988,-9,-23,14
0.732058021844401,0.0931353907820767,0.129971035528522,-12,-5,35
0.632238623957056,-0.105725440259477,-0.093595370630956,0,17,-11
0.666761403625913,0.0650703172649934,0.0365881494506848,6,-11,29
0.680511398490592,0.21304749195053,-0.110482907047705,3,17,29
0.741989586185967,-0.10687910067931,0.131839522365379,-6,-26,-41
0.559158340217682,0.168616823596299,-0.0487530219013119,-9,32,35
0.742694035862426,-0.0522623195654611,-0.0801965719844546,9,26,-38
0.55263894128002,0.0931798957794243,0.059076764507152,0,-5,29
0.663608974073385,-0.214502853878372,0.121250773399321,-0,-32,-35
0.522694531747385,0.0367331564588113,-0.0468548745468666,-3,8,26
0.630769488336082,-0.12489764822513,-0.100053740130701,-12,41,-35
0.726733894208109,-0.15882398141773,-0.049856223407329,-15,11,-23
0.632238623957056,-0.186832122012867,-0.104412663928967,9,14,-38
0.599641258651861,-0.0250293106106879,-0.0536273549878599,3,11,-11
0.728630972964024,0.241216613942507,-0.0938383548407052,-9,29,8
0.728630972964024,0.135768743065521,0.0834878544222925,15,-26,14
0.537521161219579,0.070119839212026,-0.0206170321134968,-3,5,41
0.729804889840189,0.13586620096522,-0.0689616412539876,0,26,20
0.46387156468365,-0.0339442176970865,0.0485704153755471,0,-29,-14
0.678948516705332,0.233979168624181,-0.0824803797572398,-0,26,5
0.560207805900678,-0.131813422687988,0.0895413619466787,6,-5,-26
0.678329356069648,-0.193021758132262,-0.140537587137653,-3,26,-17
0.749504596200242,-0.142252142161988,-0.122969911911214,-0,32,-29
0.616399947472678,-0.0675363996887514,0.0259940884739638,-3,-23,-26
0.710615607231969,0.224347096552928,-0.0627980715473139,-9,11,26
0.648860674111336,0.0395390910307589,-0.0710044673159757,12,14,44
0.622581894759944,0.186849166973001,0.0871266735782284,0,-20,20
0.6263252317921,-0.02560858868709,-0.0916739245461114,-6,20,-38
0.651951442300513,0.143280507873536,0.0497918667690377,-15,-41,41
0.567712863252968,0.134290574747864,0.0369621867674275,-9,-8,17
0.583527236475815,0.115388770025052,-0.0618641374350043,15,41,8
0.726733894208109,0.232659469001027,0.148416088265443,-15,-38,32
0.651269086421795,0.172937234931559,0.102082185755555,0,-44,38
0.721319192208142,-0.26215775752481,-0.0549722706523379,15,8,-38
0.678948516705332,-0.121449149154801,0.100450806590073,-3,-38,-11
0.710615607231969,-0.0893873210025116,0.0555687988349499,0,-38,-35
0.496127974995284,-0.0532028641922636,0.0168870374246416,-9,-44,-29
0.721319192208142,0.206405842440544,-0.0658666073874925,6,8,20
0.749504596200242,-0.120222842741442,0.038010218889166,15,-20,-17
0.686178850454676,0.227791766108986,-0.11910174281257,12,8,20
0.693732233680186,-0.109615636440213,-0.118816337771555,12,8,-5
0.678948516705332,-0.121204932661082,0.14103503797382,-12,-29,-41
0.620572216504412,0.208089281193488,0.0896279278131283,12,-20,11
0.603057063884092,-0.181326407725795,-0.0952401144267962,15,23,-26
0.648860674111336,0.16050276026532,-0.0566787837055745,12,38,44
0.662586902536315,0.0801974712328578,0.10686909106587,-15,-8,20
0.680511398490592,-0.231305956729361,-0.0282852326106804,9,23,-38
0.696825995213222,-0.206244701938316,-0.0792170751080036,-6,26,-29
0.502514643779673,-0.108781529705074,0.0110609463119142,15,-26,-8
0.706983213063421,-0.125965500805079,-0.109067012516182,9,11,-44
0.721319192208142,-0.13622945924978,-0.0450448203882282,-12,11,-11
0.749504596200242,-0.0920119195807676,0.143673999518079,15,-17,-20
0.583527236475815,0.18266673500571,0.00822808938177025,-12,-26,8
0.680511398490592,-0.148138902143473,-0.0981589015084713,-6,29,-35
0.726733894208109,-0.113826056027125,0.0890986545817041,-9,-17,-32
0.699479532832817,-0.0769577484459803,-0.0945977596795123,0,23,-17
0.742694035862426,0.218574021595866,0.069408021758366,15,-44,26
0.650457090697699,-0.188993718979363,0.0788230961006659,3,-26,-44
0.648860674111336,0.121692582688239,0.110897195207573,-9,-17,23
0.499449127597636,0.0323981169016095,-0.0430447448176966,-3,38,14
0.727608565485461,0.11195221241045,-0.0664770516872394,15,38,17
0.729804889840189,-0.266342883476287,0.0758374970701547,15,-20,-11
0.651951442300513,-0.217262495548591,0.0624014892491093,3,-8,-32
0.531531281776009,0.0479098497182579,-0.0792608764147965,15,14,23
0.580547398306578,-0.0419299362488991,0.040599838885928,-12,-32,-29
0.675944834636118,-0.0371051878588259,-0.107492234085147,-0,29,-29
0.733972689756069,-0.164619203346403,-0.0497685208949034,12,20,-38
0.648860674111336,0.16000648043807,0.0636686608989239,-3,-23,5
0.698651900391388,0.183814033428066,-0.144121359947464,0,5,26
0.475125019089233,-0.102598915173008,0.0570386662227742,6,-20,-11
0.744013800403426,-0.0934014353802699,0.0717226281822246,9,-20,-26
0.738734947282219,-0.169508691905271,-0.102311732223597,0,20,-32
0.59302952654212,0.188236331918559,0.0986568819573526,-15,-29,32
0.502514643779673,0.077487275214324,-0.0545622369949909,6,32,26
0.545205390969254,-0.0776095869045427,-0.0570483686868525,15,41,-38
0.721319192208142,-0.238438267417837,0.0345215815075136,0,-35,-26
0.721319192208142,-0.207838542610732,0.06695475598958,-15,-5,-5
0.461085912589288,0.110816264680088,-0.0407864990814798,15,23,23
0.696825995213222,0.217140453883607,-0.141388567017359,15,29,11
0.748327474315065,-0.244359861741167,-0.168321801795824,12,14,-35
0.741989586185967,-0.0964534994621745,0.0504011856381403,-3,-32,-17
0.728630972964024,-0.189826497034105,0.166725138973882,3,-41,-11
0.748327474315065,-0.0882227672773014,-0.0579482718233321,-6,14,-26
0.732779663944487,-0.191130724116013,-0.0327128988526574,-0,38,-14
0.71254010377933,0.100484808877581,-0.106309731202153,-15,26,41
0.655221321518486,-0.125773062148031,-0.066017691499582,-3,41,-26
0.620572216504412,-0.170061813315485,-0.0859815578868919,0,44,-20
0.638072453187022,0.19935075355001,0.100278760920777,15,-5,23
0.578199166488917,0.0778226887266943,-0.0743606798781666,-6,8,41
0.713143903412783,0.250580970745376,0.0301837137990947,3,-20,20
0.616399947472678,-0.0904492026351483,-0.115299411172364,12,44,-26
0.655221321518486,-0.223298787881229,0.0141584999220697,-12,-44,-41
0.710615607231969,0.167411789732381,-0.158888636167726,-9,23,11
0.45000319687413,-0.105805680155561,0.0317633374440506,-6,-5,-17
0.467083159908929,0.0613016739765804,0.047521394833879,-12,-11,17
0.720089086721634,-0.122059487317493,0.0657680820703425,6,-44,-32
0.675944834636118,-0.0835882153850145,0.02468755686435,3,-8,-41
0.651951442300513,-0.0835305845155298,-0.0829360623613733,-6,44,-29
0.706983213063421,0.19785198975347,0.109064826862177,6,-38,23
0.614569814719282,-0.194828355879419,-0.00883248576919386,-9,44,-26
0.746674241733614,0.226797129139926,0.157038966342595,-6,-38,26
0.691146096700652,-0.0780148957920054,-0.0295703744971205,-0,44,-32
0.682453005619253,0.0412729723812767,-0.0921230242520769,-0,32,44
0.738734947282219,-0.275396532586837,0.138095246698095,9,-5,-23
0.705574740986127,0.0836995132064753,-0.0224201726300573,12,44,8
0.741989586185967,0.0924184384207928,0.0648293292141369,6,-14,23
0.701782625247709,0.124109426621563,0.0533594697619325,-12,-17,17
0.550279196927074,0.103834826458449,0.023266587959269,12,-17,8
0.678329356069648,0.106141539153343,-0.117732736160819,3,11,26
0.653148506827737,0.213783694202102,0.130217109457523,9,-8,38
0.738734947282219,-0.247187478119221,0.0867907650923705,3,-8,-14
0.490647545025932,0.0926930984416761,-0.0280991860499866,-15,23,35
0.559158340217682,-0.116941996661976,0.0211517343800786,-12,-17,-35
0.620572216504412,-0.196147213853033,0.0775150647466071,-6,-44,-20
0.490647545025932,0.106374554922921,-0.0462093814684808,0,17,20
0.732058021844401,0.133023809630734,0.168388292915815,-6,-23,35
0.550279196927074,-0.0727881283339717,0.0156615560686953,12,-8,-8
0.54219771312355,-0.0587328982618903,0.0571999810875921,-0,-17,-44
0.686178850454676,-0.128874304423185,0.064079942762124,-0,-32,-20
0.650457090697699,0.147364846407675,-0.0204837360480864,-3,44,29
0.705574740986127,-0.130674426943311,0.10899435979807,3,-23,-11
0.724888911738339,-0.0979322979520746,-0.156422434736511,0,41,-11
