X,Y,Z,R,P,Y
0.734901476278359,0.136272348220734,-0.15542140144527,-15,14,35
0.582162354225467,-0.0689569046393926,-0.0837348345360649,-6,8,-38
0.74307766308037,-0.233997366297112,0.0656661843216532,-0,-23,-14
0.592058042197515,-0.140109316324231,0.0254561196616014,0,-5,-35
0.747926862785982,-0.203969488780981,0.172859533299685,-3,-44,-44
0.571932056268802,-0.141839240171553,0.0274005616902692,15,-23,-38
0.744606456286207,0.0584585422225031,0.108981993779619,-15,-38,44
0.707191373060546,0.129764580058317,0.0922889908888011,9,-41,14
0.734202473845758,-0.0832675720706468,-0.108584639032152,-12,23,-44
0.58290423818928,-0.116231732047722,0.0480889984673578,9,-20,-41
0.655458431884533,-0.162486208484753,0.116011672219616,-12,-5,-26
0.675973805413515,0.0468438168546133,-0.100943976549458,15,41,26
0.520116595342049,-0.104729859824961,-0.0704710772775432,-6,38,-35
0.712560394971465,0.244632810014473,-0.147161904442753,-0,17,8
0.615343900851575,0.169682022344195,-0.100173050923798,-12,29,23
0.731191201647526,-0.19988490821825,0.0787475625213318,-15,-14,-11
0.667330501899809,-0.17914901089248,0.0965653196527554,6,-5,-32
0.592058042197515,0.179197810804659,-0.0760473966790333,15,20,14
0.734901476278359,-0.267780687790687,0.0484569660098928,-0,-41,-29
0.747926862785982,-0.0606236100036451,-0.158459634597877,15,26,-20
0.697221173749844,-0.205751140908851,0.0397998138201467,15,-35,-11
0.746353491511774,-0.128241885263958,0.0620325224604774,-3,-26,-35
0.513619234420021,-0.101339221602209,0.0315956178508806,-15,-5,-29
0.592058042197515,-0.0542759967826767,-0.0526077198158803,-3,38,-41
0.60710404976373,0.0244272162919688,0.0655152041794165,6,-26,29
0.688898547422502,-0.219386972956541,-0.0724075397051299,0,8,-17
0.649264367009123,0.0909183791848912,-0.0441918400641881,-0,38,38
0.652325513489621,-0.227549873642154,0.0960512275826967,-9,-32,-35
0.738472220198683,-0.191144148060139,0.0932895387231575,-15,-32,-38
0.68249606968606,-0.152246989317528,0.135188457009679,15,-20,-11
0.583677004738064,0.171693359804067,0.031327445139781,9,-29,23
0.622340375625699,-0.0518248033405099,-0.101779310815609,15,32,-32
0.722562843612977,-0.111690699532865,-0.11565269536886,3,14,-8
0.717939683529048,-0.10715627743614,0.144338586747122,-3,-41,-11
0.676515834725321,-0.127433658349603,-0.110684884342603,-9,38,-20
0.594246209838483,0.178635776266629,0.0275132515228016,-0,-32,14
0.744606456286207,-0.074063935605944,0.0385124161448406,15,-41,-17
0.581547846553319,0.10436169334031,0.0685254211607695,-12,-20,8
0.67155814336716,0.0883267384029207,0.0790670602754425,6,-44,11
0.481400678818508,-0.0450950994406476,-0.0139078809167692,0,26,-20
0.723327828061509,-0.266480377990442,-0.152269610716345,-9,17,-14
0.638171397029716,-0.0945400308900872,-0.106725426694754,-9,14,-32
0.500556114481898,-0.112993385292415,0.0240027986339789,9,-20,-8
0.580918550313397,-0.0855278100248409,0.0569549860649173,-15,-44,-23
0.747115217085706,-0.261320893121117,0.161735735357262,-3,-29,-8
0.734901476278359,0.239310024972197,-0.0764330988111811,12,17,26
0.521492895849987,0.116711643442187,0.0431839753426455,15,-20,35
0.697738449736259,-0.0841037149590316,0.051349364286693,-0,-23,-29
0.717939683529048,0.176083955539352,-0.123046600436712,0,26,26
0.609856747628955,-0.0654682528704612,-0.0664866769095296,-0,8,-41
0.620416837265554,-0.0335374277800152,-0.0377985965763826,12,38,-32
0.676515834725321,0.086716502037668,-0.0430858485981137,9,38,44
0.676515834725321,-0.0770875209815158,0.113360337706221,-9,-38,-29
0.601887048649291,-0.197694975424557,-0.0512227354609526,-0,35,-14
0.747926862785982,0.0469005091956545,0.117157331737556,-0,-32,8
0.617592210431006,-0.0923026657251515,-0.0978712711545552,0,29,-32
0.660440877689007,0.188959796812074,-0.0942110715876845,6,35,11
0.731191201647526,-0.0778417649393039,-0.106950945346541,-12,44,-29
0.542814799215214,-0.03603617956265,-0.0463229932765931,-15,14,-17
0.709332451013943,-0.12444760525401,0.0935525660840583,6,-8,-41
0.665440282728559,-0.0777792203927039,-0.0301023023450831,3,26,-14
0.747115217085706,-0.0938100278349291,0.0934633753992021,-12,-8,-35
0.697221173749844,0.0943522973485567,-0.0894259005967298,15,14,44
0.729093136607724,0.168573126177822,-0.0285389395937788,-0,44,44
0.637083927661788,0.147463746254588,-0.0292936339916551,-6,8,26
0.549111187639674,-0.124932725426095,0.0432842386899293,6,-20,-20
0.615343900851575,0.104205169897375,-0.0420644148846169,6,14,26
0.646334948546472,-0.0717455378961057,-0.0639748697332696,-0,11,-38
0.747926862785982,-0.137372423165059,-0.0773909434129602,9,20,-38
0.617592210431006,0.167200304459331,0.0486064375405209,9,-14,41
0.7137862694712,0.028552689057016,-0.140908955740062,-12,41,38
0.72681140339776,-0.0791385221771016,0.0409420445383022,6,-26,-44
0.467403146900396,0.0581844864241474,-0.0388086153872782,-12,20,35
0.72164063271772,-0.08424680166799,-0.0770059334873914,-6,11,-41
0.513619234420021,0.107485184258135,0.0688087377168486,6,-23,20
0.627988011117418,0.0743190154344999,0.0310415614787082,3,-44,20
0.625347937970484,-0.0644687248654995,0.0653152000754107,3,-32,-26
0.586812995951322,-0.0547558298502208,0.0846652990777858,0,-26,-5
0.589741829464999,-0.140150710211202,-0.0388814309228097,12,5,-14
0.524976006484707,0.136272476010521,0.0620351680376703,-9,-44,23
0.598580263198139,0.118023946714047,-0.048044201550375,6,26,32
0.734901476278359,-0.05569805004594,-0.0445294658035024,15,14,-5
0.747926862785982,0.0812232337170688,-0.0845497524911318,3,35,26
0.617592210431006,0.200617325187629,-0.104478226264033,-3,29,23
0.695318539130608,0.0645773609155411,-0.0438696840545963,-15,11,26
0.708248029173566,-0.210116664485167,-0.0838719157675764,-3,11,-32
0.689754205937402,0.154095050036604,-0.0955128617367028,-0,5,32
0.679764545558361,-0.241663610159983,-0.0682940642192666,-3,41,-41
0.649264367009123,0.106970212702131,-0.0303394623334981,3,26,44
0.744606456286207,0.104434733801751,0.112976944259211,-15,-38,26
0.717939683529048,0.182633259439881,0.112452546110812,6,-11,8
0.586812995951322,0.165184444039383,0.0967055444698853,9,-8,20
0.67155814336716,0.0629166065182803,0.13014141843803,-9,-44,38
0.652325513489621,-0.110826263570675,0.0631147880729432,12,-8,-17
0.579782024456025,0.0131231337368633,0.0479496945180807,0,-14,17
0.679764545558361,0.183836788382943,-0.0897775863745163,-3,29,38
0.693276100020372,-0.128638782275712,0.0716201410251674,-3,-38,-17
0.697221173749844,0.154572476027805,-0.0197827466588373,0,20,23
0.599209000730338,-0.185073218371805,0.0381450742304989,6,-14,-14
0.731191201647526,-0.245307372162657,0.160646681593317,-9,-17,-29
